ply
format ascii 1.0
element vertex 1735
property float x
property float y
property float z
end_header
0.402466 0.254231 0.679902
0.168403 0.622526 0.981139
0.445746 0.043247 0.236814
-0.275654 0.021602 0.393094
-0.213769 0.430938 1.150757
0.231581 0.696206 0.925222
0.367186 0.176406 0.487737
0.324891 0.577107 0.519632
-0.017931 0.585277 0.939014
-0.123608 0.273572 1.205852
-0.153212 0.464981 0.557613
-0.101017 0.022589 1.011322
-0.144944 0.569750 0.238481
-0.009029 0.049650 0.776915
0.165206 0.666925 0.887460
0.198170 -0.133778 0.709902
-0.126147 0.219937 0.123959
0.233697 0.653993 0.979425
0.141451 0.542810 0.852951
0.508712 0.240431 0.635126
0.196621 0.604026 1.118688
-0.388696 0.656249 0.722316
0.145912 0.493468 0.505976
-0.181320 -0.166664 0.801984
-0.214353 0.109321 0.773739
0.316841 0.058642 0.214286
-0.237126 -0.099654 0.859381
-0.108229 -0.003837 0.939651
-0.571129 0.142468 0.921585
-0.314951 0.716057 0.631667
-0.373560 0.198550 0.821795
0.091079 0.694370 0.358968
-0.220270 0.718719 0.763920
0.104841 0.583441 1.156568
-0.218218 0.604396 0.830832
-0.268584 0.571680 0.883565
-0.389410 0.161702 0.307007
-0.290929 0.655481 0.897665
0.355117 0.254734 0.838525
-0.558673 0.316940 0.963616
0.381123 0.177141 1.038945
-0.301605 0.627299 0.860441
0.046302 0.696106 0.754386
-0.207902 0.746861 0.566333
-0.104401 0.704756 0.403815
-0.254559 0.140832 1.085367
0.158414 0.726501 0.955453
0.325290 0.333057 0.834962
0.415409 0.355133 0.366471
-0.051988 0.057939 0.474169
0.184578 -0.071239 0.860095
0.175836 0.011203 0.717180
-0.212542 0.607880 0.450347
0.000555 -0.090625 0.807624
0.326307 0.408755 0.525551
0.463991 0.042779 0.554440
0.195616 0.585449 0.413591
0.251480 0.380762 0.634691
-0.096388 0.780528 0.702752
0.258829 0.136680 0.509116
0.306967 0.487990 0.247953
0.139212 0.141886 0.466528
0.471371 0.510641 0.791849
-0.106996 0.238973 1.251958
-0.087303 0.568361 0.901281
0.010302 0.372043 1.232866
-0.277253 0.663855 0.418271
0.029444 0.124289 1.015596
0.534714 0.080763 0.931272
-0.093103 0.320588 0.071912
0.317890 0.465339 0.863147
0.273516 0.683004 0.955601
0.125672 0.135155 1.272583
0.249005 0.496559 0.915645
0.316698 0.457849 0.539331
-0.058107 0.130185 1.176980
0.220916 0.713868 0.516292
0.254998 0.447249 0.373771
-0.271389 0.691948 0.637438
-0.075232 0.017816 0.715029
0.297057 0.300918 0.772536
-0.304445 0.242687 0.194232
0.312300 -0.116701 0.900650
0.157217 -0.057250 0.631136
-0.023928 0.264698 0.958966
0.164645 -0.008698 0.592106
-0.362802 0.551619 0.410643
-0.403033 0.372312 0.995248
-0.256719 0.575913 0.426867
0.417865 0.125786 0.983174
-0.433969 0.467629 0.696633
0.229484 0.507493 0.882795
0.168586 0.680332 0.824627
0.145582 0.702218 0.574406
0.127453 0.437465 1.017037
-0.387311 0.249745 0.257982
-0.068339 -0.115990 0.820312
0.407092 0.278086 0.542036
0.428950 0.271891 1.164011
-0.066573 0.691874 0.897609
0.569359 0.248531 0.740058
0.380435 0.320210 1.126873
-0.220074 0.349285 1.220654
0.329078 0.156936 0.331713
-0.091222 0.764826 0.505917
0.284310 -0.181024 0.748128
0.087632 0.768753 0.664164
-0.222888 0.462867 0.499108
-0.125336 0.180491 0.193245
-0.331753 0.216201 0.217087
-0.058118 0.772789 0.736012
0.261581 0.037022 0.858753
-0.181194 0.131785 0.095819
0.325743 0.555682 1.006350
0.315806 0.291508 1.190197
0.028824 0.425225 0.280125
-0.217336 0.384976 0.448775
0.152717 0.634720 0.630393
0.170475 0.703331 0.577038
0.295191 0.401276 0.845725
0.006894 -0.102825 0.851162
0.022551 0.429854 0.932121
-0.163228 0.235795 1.052088
0.069932 0.596910 0.942340
-0.018838 0.667143 0.886593
-0.241019 0.539233 0.804387
0.297803 0.112839 1.134828
-0.333132 0.133860 0.814445
0.086085 0.418359 0.108560
-0.013424 0.606081 0.601324
0.255450 0.441251 0.993379
-0.438874 0.186126 0.974119
0.188702 0.628902 1.052531
-0.150175 0.541568 0.914579
-0.173597 0.041220 0.868659
-0.063255 0.741261 0.556669
0.111483 0.772705 0.584817
-0.054330 0.029676 1.036286
0.602770 0.321306 0.896646
0.264253 0.240008 0.649688
0.069333 0.152976 0.360383
-0.327953 0.699396 0.714218
-0.123072 0.721846 0.882462
0.161874 0.552700 1.017738
0.154406 0.596057 0.810453
0.025581 -0.384378 0.523147
-0.240695 -0.091327 0.469998
-0.243323 0.700157 0.628665
0.205474 0.614706 0.549467
-0.029565 0.642271 0.450236
-0.369006 0.411883 1.106665
-0.296067 0.356200 0.624358
-0.535155 0.271288 0.702853
0.471272 0.019132 0.658220
0.256272 0.670307 0.668479
0.308172 0.067992 0.677529
-0.160855 0.239802 0.131487
0.335520 0.062737 1.003718
-0.159048 0.470136 0.748787
-0.015840 0.529976 0.172446
-0.070039 0.706774 0.883896
0.125712 -0.018898 0.679403
-0.028992 0.640357 0.270810
0.558327 0.297552 0.580518
-0.328245 0.119584 0.909407
0.132996 0.354441 0.307444
0.137926 0.147230 0.568000
-0.341705 0.562862 0.618948
0.029238 0.725220 0.926862
0.058050 0.723452 0.489918
-0.185363 0.009363 0.773825
0.188247 0.088201 0.780460
0.522569 0.316186 0.974506
-0.355519 0.098196 0.729961
-0.107182 0.466549 0.306810
0.231930 0.649676 0.971024
0.101437 0.224735 0.060894
0.227158 0.025398 1.113470
0.265584 0.377167 0.881092
-0.300675 0.114768 0.648842
-0.404336 0.329144 0.891767
-0.084030 0.093022 1.241123
-0.218878 0.393474 0.587619
0.295233 0.596592 0.507526
-0.061490 0.580885 0.295449
-0.019119 0.574938 1.158962
-0.044099 0.622251 0.615606
0.276309 0.500303 1.114801
0.466797 0.445858 0.903796
-0.356591 0.607175 0.484965
-0.160687 0.028746 0.825037
-0.226965 0.392078 0.565843
0.374726 0.147663 1.180236
0.045205 -0.127644 0.707980
0.129347 0.067112 0.970542
-0.074048 0.361355 1.189019
0.535748 0.436549 0.607108
-0.442592 -0.189407 0.866150
0.211660 -0.005737 0.794164
-0.167653 0.211346 0.989888
0.413420 0.206194 0.809692
0.393932 -0.013384 0.969761
-0.124659 0.571740 0.786494
-0.146213 0.191346 1.012776
0.294303 -0.180774 0.407835
-0.341277 0.282003 0.807557
0.045294 0.719769 0.476537
-0.154715 0.256380 1.003595
0.277270 -0.206995 0.863376
-0.350474 0.361887 0.774978
-0.050485 0.539557 1.185516
-0.297533 0.380088 0.904014
0.516216 0.249494 0.837295
0.524144 0.128715 0.739172
-0.201236 0.524807 0.979098
0.269636 0.655608 0.791821
-0.483115 0.095993 1.082255
-0.570471 0.032082 0.797210
0.278117 0.249392 0.207758
0.083752 0.549731 1.130580
0.078298 0.665006 1.058721
-0.321104 0.089756 0.760917
0.395660 0.283424 1.075498
0.150127 0.056468 0.403570
0.321584 0.531301 1.049537
0.477840 0.118542 0.362304
0.199894 0.664391 0.721959
-0.257004 -0.020755 0.142750
0.015636 0.208946 1.061922
-0.326718 0.247513 0.749081
0.466071 -0.035438 0.352977
-0.262531 0.189481 0.205141
-0.150525 0.534779 0.672961
-0.032955 0.322484 1.057715
0.143685 0.529839 0.561136
-0.161052 0.059171 0.887779
-0.280523 0.290264 0.275060
0.410550 0.246763 0.760436
0.025151 0.670631 1.039599
-0.032291 0.688170 0.479936
-0.210969 0.736723 0.693310
0.179408 -0.008104 0.824368
0.257813 -0.061528 0.994400
-0.052478 -0.156078 0.959166
-0.418844 -0.019607 0.619207
-0.246901 0.629620 0.983248
0.145291 0.056579 0.826109
-0.389472 0.496741 0.789901
-0.127654 0.499543 0.863226
0.030071 -0.094324 1.017325
-0.121627 0.015552 0.686488
0.434869 0.147864 0.883131
-0.175827 0.143050 1.173348
0.411292 0.410623 0.679037
-0.268157 0.498270 0.326856
0.087294 0.574522 0.730372
0.199719 0.457166 0.427123
0.229359 0.276269 1.083393
-0.231658 0.220639 1.077984
-0.187449 0.674242 0.972483
-0.395055 0.118587 1.215556
-0.553812 0.238920 0.571311
0.181722 0.506083 0.618487
-0.269488 -0.050287 0.957831
-0.300954 -0.005513 1.078663
-0.072356 0.593692 0.309672
0.248884 0.321112 1.252270
-0.427299 0.557949 0.823166
-0.205271 -0.172070 0.809494
-0.569668 0.288309 0.497741
0.330987 0.532795 0.637291
0.022840 0.130011 0.992140
-0.201732 0.725218 0.658293
0.133291 0.500967 0.314949
-0.284719 0.159324 0.680692
-0.139021 0.734607 0.860165
0.141721 0.519909 0.320426
-0.068216 0.646024 0.796990
-0.283315 0.584024 0.935284
-0.468414 -0.132097 0.511818
-0.211569 0.326275 0.448153
0.219583 -0.047455 0.659241
0.385292 0.433810 0.581959
0.354420 0.096209 0.562920
0.179846 0.505928 0.635158
0.180754 -0.008599 0.118793
-0.009664 0.332516 0.586226
0.373623 0.399161 0.572899
0.311695 0.694366 0.691144
-0.271346 0.117804 1.111466
-0.126640 0.533417 0.925095
-0.625803 0.205331 0.603327
-0.064413 0.767087 0.867895
-0.098483 0.491404 1.051396
-0.151333 0.623420 0.275391
-0.173805 0.449592 1.162916
0.213221 -0.036656 0.619340
0.112226 0.285119 1.083244
-0.176487 0.726694 0.542190
0.299568 0.282520 0.626362
-0.115747 0.631620 0.947415
-0.308883 0.268496 0.186200
0.348847 0.190477 0.859743
-0.471995 -0.135269 0.876284
0.579030 0.308881 0.892728
-0.153169 0.317578 1.052064
-0.405014 0.232887 0.872004
-0.336965 0.344154 0.289373
0.284024 0.388256 0.283559
-0.176239 0.694282 0.600631
-0.029442 0.719592 0.776847
-0.009851 0.571449 0.914610
0.067156 0.761807 0.845553
0.054657 0.456380 0.856825
-0.421746 0.398786 0.897807
-0.268701 0.634333 0.872729
0.159833 -0.103691 0.444512
0.224318 0.029089 0.799907
-0.182071 0.531273 0.982967
-0.062836 0.264577 0.508265
-0.041557 0.705581 0.343334
0.004702 0.507071 0.232440
0.322513 -0.035174 1.058585
0.451003 0.500996 0.487082
0.243930 0.056918 1.089225
-0.367734 0.162385 1.022123
0.312611 0.291984 0.993352
-0.331273 0.098409 0.670062
0.174970 0.732070 0.562302
0.502094 0.299689 0.527050
-0.347970 0.192253 0.588984
0.072536 -0.056931 0.723985
-0.290162 0.038083 0.914038
0.244171 0.559697 0.475551
-0.289551 0.004716 1.165769
-0.056620 0.202985 1.284648
0.174729 0.061491 0.605821
-0.115149 -0.201336 0.688742
0.098171 0.624829 0.628505
0.092557 0.119068 0.906807
0.281526 0.153515 0.878746
0.047125 0.013978 1.313509
-0.087410 0.252207 0.516636
0.155007 0.088503 1.006405
-0.400425 0.437575 0.324957
0.115394 0.121926 0.333820
0.333248 0.304252 0.760847
-0.117635 0.302191 0.956128
0.109620 0.172636 1.291945
0.035327 0.151133 0.408764
-0.239125 0.742901 0.820050
-0.242047 0.174101 0.198994
0.497288 0.371434 0.613750
0.256491 0.465508 0.716880
-0.358215 0.179111 0.468740
0.141953 0.609375 0.895606
-0.031683 0.520120 0.186870
-0.260850 0.129871 1.043802
0.231085 0.686111 0.521418
-0.320699 0.343345 0.744388
0.453076 0.428616 0.663205
0.159271 0.480074 0.302069
0.047208 0.796659 0.633519
0.149561 0.401637 1.127464
-0.212789 0.620311 0.979742
0.601808 0.160149 0.856547
-0.452489 0.470778 0.892739
0.298417 0.630718 0.822933
-0.459574 0.457620 0.866246
-0.126938 0.423595 0.325578
-0.310407 0.595190 0.785917
-0.186223 -0.125702 0.700151
0.042108 0.537489 1.224061
-0.264231 0.625586 0.576910
-0.378829 -0.032190 0.662341
0.504935 0.178443 0.829371
-0.534952 0.383039 0.528897
-0.379107 -0.112038 0.494796
0.050076 0.278667 0.284359
-0.203183 0.377235 1.020216
-0.205328 0.144351 0.555569
0.046193 0.189750 1.190543
0.533879 0.287630 0.526928
-0.310670 0.168382 1.098181
0.390103 0.548256 0.672681
0.229764 0.099678 0.808181
0.015190 0.648816 0.512510
0.154763 0.098175 0.720937
-0.382915 0.540320 0.736760
0.156087 0.511014 1.040594
0.386736 0.564437 0.763929
0.349886 0.281151 1.221114
-0.445744 0.393023 0.727486
-0.331142 0.153753 0.582487
0.547786 0.459642 0.803623
0.017296 0.213528 0.153196
0.082755 0.344462 0.519786
0.003227 0.204115 1.292445
0.269574 0.633930 1.010878
0.064541 -0.025819 0.937490
-0.041648 -0.162162 1.031782
0.311384 0.478288 0.543983
0.398221 0.308830 0.975163
0.228003 0.340519 0.220183
0.150184 0.143834 1.009182
0.027953 0.026819 0.425983
0.286794 0.497719 0.556035
0.262585 0.436620 0.395281
0.352574 0.612661 0.764893
-0.318412 0.521126 1.090326
0.307043 -0.145436 0.865737
-0.337329 0.389604 0.481091
0.069587 -0.038100 0.758201
0.200388 0.230279 0.152591
-0.312076 0.153105 0.575060
-0.299025 0.302443 0.475172
-0.228989 0.227852 1.053824
0.280889 -0.050408 0.589941
0.082427 0.426820 0.572032
-0.414108 0.234846 0.388687
0.199800 0.209417 0.342162
-0.043828 0.810374 0.693979
-0.480747 0.257556 0.931928
-0.189965 0.292869 0.916400
0.224150 0.723024 0.683834
-0.485484 0.068871 0.381398
0.176211 0.670189 0.755602
0.298163 0.727916 0.769970
0.248796 0.439886 0.261670
-0.451755 0.263181 0.692417
-0.303099 0.114442 0.694053
-0.447760 0.405631 0.344749
0.490545 0.355644 0.429801
0.216216 -0.006824 0.606744
-0.140999 0.739282 0.788745
0.097000 0.369932 0.951081
-0.239355 0.752475 0.617434
0.120932 0.124199 0.247881
0.516103 -0.036363 0.433366
-0.033197 0.172030 0.405363
-0.078962 0.757348 0.659338
-0.331873 0.278674 0.927553
-0.392590 0.057905 1.176756
-0.229191 0.532966 0.905638
-0.328003 0.645545 0.723666
0.148191 0.367186 0.657620
-0.212458 0.651482 0.404709
0.183485 0.738577 0.641311
0.524082 0.141707 0.925373
-0.266464 0.533248 0.293195
-0.503988 0.327903 1.020389
0.156715 0.466055 0.642375
0.268312 0.724008 0.641064
0.301430 0.473545 0.361140
0.067180 -0.140761 0.547290
-0.077591 0.802494 0.704419
-0.073840 0.569149 0.211671
0.161358 0.528113 0.965451
-0.325207 0.670272 0.800765
0.365639 0.481608 0.659095
-0.331411 0.082993 0.398555
0.278076 0.719382 0.554719
0.241297 0.260696 0.749305
-0.450725 0.295222 0.476926
-0.366686 0.634815 0.620884
0.050205 0.389191 1.048911
0.270429 0.339889 0.952538
0.345733 0.088728 0.912143
0.038026 0.000480 1.036302
-0.106366 -0.174774 0.736974
0.167461 0.683356 0.951251
-0.089031 0.177436 1.169811
0.136273 0.182347 1.089008
0.248959 0.510817 1.124536
0.103032 0.677492 0.384560
0.315551 0.166894 0.445515
-0.480422 0.379212 0.622369
-0.316921 0.096083 0.713859
0.169502 0.040246 0.435060
-0.310049 0.134697 0.593524
0.426306 0.524409 0.919102
0.324872 0.382327 0.459808
-0.544664 0.399572 0.480475
0.174652 -0.136146 0.720698
0.226171 0.546074 1.074703
0.324556 0.358199 0.486639
-0.168045 -0.054102 0.832062
-0.276738 -0.166794 0.531302
-0.184171 0.094109 0.089224
-0.147215 0.488324 0.625785
-0.029305 0.437682 1.112276
0.086918 0.481380 0.252956
-0.452401 0.452618 0.902854
0.372634 0.251490 0.437407
-0.058424 -0.039294 1.047288
0.245976 0.634650 0.715173
-0.280163 0.055441 0.789630
0.064946 0.679065 0.710684
-0.230899 -0.210486 1.038986
0.224338 0.046470 0.705805
-0.280265 -0.109607 0.447612
-0.158681 0.590667 0.886321
0.574820 0.405070 0.693566
-0.154413 0.364430 1.135583
-0.514571 0.220491 0.549433
0.395615 0.253483 0.195209
0.091718 -0.157243 0.546227
-0.081458 -0.201592 0.612895
0.108032 0.025805 0.868390
0.365655 0.491455 0.821040
-0.378295 0.084711 1.063145
-0.091420 0.586991 0.460605
0.086371 0.345408 1.062906
-0.333928 0.309248 0.322246
0.140995 0.726188 0.672721
0.166159 0.114436 0.346875
-0.365261 0.192306 1.038025
0.329286 0.271656 1.134306
-0.406657 0.249627 0.709034
0.030738 0.528366 0.164290
0.283431 0.480551 0.848746
0.299892 0.592937 0.683431
0.272064 0.543511 0.807561
0.409376 0.551797 0.882324
-0.064732 0.361514 0.977591
0.357028 0.105096 1.065127
-0.403364 0.415751 0.636026
-0.060689 0.681718 0.664557
-0.258126 0.653445 0.441649
0.341503 0.336750 0.876834
0.229388 0.363731 0.345977
0.057454 0.556031 1.126216
-0.112339 0.622562 1.007514
-0.185301 0.205763 1.096599
-0.001171 0.447975 1.007514
-0.188260 0.593093 1.041664
-0.391011 0.121198 0.735388
0.076030 0.648560 1.106171
-0.219377 0.549654 1.089859
-0.268142 0.522134 0.895981
0.143476 -0.008576 0.583328
-0.429375 -0.026830 1.002509
-0.143562 0.124053 0.645149
-0.308049 0.229974 1.090742
0.243842 -0.103954 1.051995
0.064245 0.440987 0.241883
-0.391331 0.480838 0.966323
-0.265737 0.351069 0.199233
0.080135 0.098410 0.905181
-0.428629 0.538423 0.884324
-0.430333 0.076755 1.128335
0.233848 -0.140613 0.959530
-0.525242 0.050653 0.512912
-0.349550 0.190881 0.794622
0.198841 0.278410 0.615738
0.260329 0.155477 0.551572
0.197761 0.078327 0.234581
-0.219258 0.607947 0.615446
0.017964 0.620714 0.970802
-0.248777 0.044467 0.835455
-0.385689 0.498564 0.828476
-0.158927 0.518394 0.906397
0.091602 0.390018 1.096162
0.301986 0.229464 0.230620
0.128120 0.536193 0.487740
0.183720 0.483770 1.117048
0.277898 -0.102615 0.570867
-0.093700 0.102427 0.553074
-0.080729 0.610280 0.824406
-0.195257 0.276582 0.476417
-0.316818 0.430866 0.284654
0.343670 0.194645 0.618393
0.245500 0.528075 0.475692
-0.042587 0.610919 0.300893
0.528738 0.282542 0.521869
-0.366418 0.441260 0.936611
-0.108139 0.550472 1.090061
-0.047920 0.230912 1.263710
0.115312 0.767312 0.786543
0.275746 -0.064906 0.648572
0.236170 0.549976 0.946227
-0.057785 -0.178635 0.792127
-0.294690 0.535567 0.444238
-0.359056 0.554917 0.696281
0.157414 0.666065 0.629638
-0.194893 0.704107 0.880547
-0.179193 -0.166485 0.629844
-0.442627 0.411264 0.863772
0.054249 0.297896 1.188028
0.302363 0.305894 0.793244
-0.184674 0.361762 0.216765
0.196137 0.436277 0.984998
-0.062456 0.692626 0.974343
0.211362 0.273008 0.398306
-0.172864 0.299875 0.997855
-0.373662 0.409762 0.775396
-0.307343 -0.086113 1.195647
-0.064715 0.447029 0.994280
0.117784 0.131374 0.830575
0.252557 0.400501 0.448101
0.202945 -0.137239 0.903327
0.433829 0.062045 0.959150
0.116609 0.318061 1.113715
0.241847 0.074547 1.267503
-0.202398 0.154407 0.916264
-0.006264 0.270364 1.031788
-0.309848 0.019161 0.366126
-0.084236 0.507914 0.371543
-0.401726 0.426537 0.718801
-0.117655 0.107759 0.718008
0.371255 0.050319 1.088044
-0.176827 0.579293 0.796058
0.272465 -0.165668 0.949572
0.368934 0.298820 0.428686
-0.373945 0.406690 0.431619
0.392941 0.305549 1.182973
-0.196192 0.759032 0.840878
0.363281 0.305205 0.435730
-0.051899 0.491302 1.106623
0.166394 0.017679 1.260232
0.103451 0.077217 0.992681
-0.138631 -0.083525 0.706232
0.190004 0.543267 1.093291
0.230487 0.636307 0.822177
-0.358953 0.390133 0.907004
-0.447203 0.307381 0.326999
0.273322 0.543161 0.890840
0.203336 0.770852 0.734989
0.362565 0.289251 0.923252
-0.240616 -0.062633 0.374344
-0.490505 -0.116882 0.504397
-0.087318 0.661440 0.581197
-0.120498 -0.119634 0.648621
-0.352252 -0.015908 1.005847
-0.158306 0.694075 0.603516
-0.458314 0.320187 1.034261
0.225513 -0.134541 0.642826
0.074409 0.609569 0.902898
-0.101527 0.205061 0.251261
-0.228371 0.568188 0.634167
0.103580 0.082400 0.384743
-0.491777 0.078135 0.459060
-0.142425 -0.121168 0.938723
0.303363 0.609310 0.651997
-0.236301 0.177487 0.978162
-0.018754 0.145568 0.532924
0.274567 0.482773 1.176322
0.009403 0.490447 1.027841
0.483426 0.005906 1.002557
-0.015348 0.251056 1.074154
-0.102049 0.511470 0.264142
0.433834 0.431314 0.714041
0.380628 0.570782 1.003442
-0.134705 0.753420 0.798903
-0.103040 0.354008 0.894206
0.051363 0.108230 0.538611
-0.370049 0.257260 1.121882
-0.291913 0.261167 1.248727
-0.224856 0.623357 0.578509
0.108376 0.191532 1.108185
-0.123438 0.687826 0.820284
-0.284217 0.002779 0.456552
0.268048 0.141717 0.780125
-0.417574 0.603735 0.601886
-0.123241 0.354217 0.903534
0.612492 0.044856 0.718580
-0.596751 0.334137 0.802083
0.339851 -0.034451 1.197285
0.275116 0.313114 1.041110
0.548062 0.273992 0.517628
-0.353475 0.323276 0.742767
0.451142 0.355273 1.090657
-0.016276 0.268746 0.079484
-0.272825 0.690370 0.738295
-0.154861 -0.122923 0.676080
0.341969 0.006248 1.214697
-0.026341 0.037465 0.823015
-0.195225 0.693479 0.915289
0.431775 0.184335 0.375070
0.123177 0.351977 1.003113
-0.566031 0.107380 0.436848
0.137392 -0.006349 0.830842
0.575171 0.234578 0.595720
0.090417 0.768093 0.780704
0.508428 0.525117 0.683492
0.150374 0.584600 0.850946
-0.138950 0.295979 0.711688
0.041403 0.094853 1.044439
0.504142 0.316162 0.600251
-0.232729 0.551321 0.238978
-0.263575 0.265075 0.742241
0.025985 0.472211 0.167706
-0.254385 -0.284215 0.585282
-0.069967 0.787375 0.779189
0.149302 0.477371 1.011123
0.307273 0.635882 0.777389
0.326553 0.542568 0.643073
-0.167316 0.726819 0.601263
0.054978 0.253681 0.524309
-0.011327 0.504785 0.775232
-0.131833 0.467165 0.269889
0.155988 0.244393 1.010618
0.525839 0.287189 1.028517
0.155265 0.411447 1.050788
-0.223091 0.298375 0.366335
-0.293098 0.660479 0.773127
-0.264509 -0.076168 0.495561
-0.278715 0.051555 0.580209
0.453027 0.292816 0.938024
-0.204402 0.725560 0.950956
0.171402 0.028211 0.289491
-0.160380 0.105702 1.238893
-0.424451 0.291756 0.758812
-0.310899 0.120599 0.838673
-0.246995 0.566595 0.925118
0.242389 0.294442 1.022991
0.178550 -0.040815 0.679009
-0.221655 -0.133466 0.661817
-0.071418 0.471907 0.822941
0.228450 0.562507 0.653534
0.234957 0.208861 0.400081
0.116949 0.077535 0.492753
0.229258 0.110394 0.790163
-0.026023 0.502369 0.309677
-0.342564 0.265656 0.985310
-0.287270 0.091719 0.988053
-0.002765 0.598044 0.352006
0.132947 0.702691 1.014779
-0.168703 0.111860 0.278595
0.263916 0.745911 0.724019
-0.126773 0.574541 0.497708
-0.444373 0.501952 0.650017
0.098757 0.614703 0.427883
-0.010782 -0.091954 0.991646
0.166060 0.220521 0.958688
-0.207896 0.485911 1.196286
0.098477 0.630697 0.522700
0.375123 0.376454 0.843325
-0.153973 0.638587 1.032354
0.188073 0.480095 0.588418
-0.178494 0.245854 1.094450
0.522008 -0.015225 0.702801
-0.231140 0.433971 0.898179
-0.247953 0.545604 0.773811
-0.255281 0.520353 0.652062
-0.277105 -0.101366 0.786929
0.272764 0.335491 0.362082
0.253180 0.270073 1.138292
0.149653 0.128185 1.302006
-0.018262 0.630489 1.104904
0.445189 0.509454 0.867525
0.216265 0.600344 1.008179
0.316466 0.514835 0.820011
0.299762 0.442500 0.467525
0.407109 -0.206838 0.733810
0.237425 0.129171 0.392651
0.048346 0.388590 0.589562
0.138007 0.469456 0.537851
-0.108700 0.586686 1.096630
0.293044 0.301489 0.993884
-0.088251 0.666782 0.647016
0.003712 0.456817 1.171877
-0.038326 0.563137 0.370701
0.408268 0.322877 0.966385
0.123842 0.627274 0.741389
-0.134498 0.674661 1.043813
-0.256785 0.120425 0.385849
0.026196 0.436723 1.098680
0.407685 0.228135 0.877150
0.196822 0.106003 0.501258
0.263905 0.418844 0.911275
0.422437 0.482422 0.992489
-0.271479 0.032556 0.278414
0.106558 0.518299 0.736264
0.036229 0.714824 0.598109
0.351626 0.429245 0.248047
-0.324965 0.276328 0.973733
-0.251473 0.436617 0.574273
0.526353 0.107754 0.941743
0.404683 0.598904 0.846151
-0.044200 0.633173 0.470362
0.567982 0.249759 0.974914
-0.207285 0.511182 1.018948
-0.084056 0.114837 1.179920
0.083642 0.541533 1.006782
0.143009 0.102198 0.392358
0.145618 -0.111817 0.915629
0.174986 0.073876 1.239833
0.368223 0.501263 0.566841
0.240236 0.579691 0.659299
0.286590 0.512190 0.364367
-0.423207 0.420604 0.447695
0.409143 0.113629 0.866580
0.282214 0.414669 0.386367
-0.150830 0.642923 0.573158
0.289467 0.514943 0.525962
-0.379159 0.537771 0.580261
0.319171 0.225957 0.916980
0.279004 0.549150 0.682950
-0.264420 -0.008130 1.055141
-0.108705 0.023144 1.249505
0.244426 0.443338 0.635109
-0.074276 0.495753 1.201320
0.410706 0.119734 1.107335
0.411475 0.276927 0.668878
0.015815 0.599715 0.603091
-0.341217 -0.045113 1.069213
0.012778 -0.188860 0.760673
-0.254363 0.545072 0.646751
0.321833 0.242188 1.078823
-0.085531 0.346517 1.148100
0.295268 0.311887 0.746344
-0.263642 0.433883 0.256306
0.045060 0.397918 0.147234
-0.084963 0.146396 0.538700
-0.340538 0.072343 0.854292
0.090700 0.725825 0.551156
0.380256 0.407398 1.059274
0.330166 0.608329 0.829646
-0.535001 0.170984 0.749324
-0.269892 0.277728 0.470811
-0.378082 0.389824 0.520484
0.102594 -0.010599 0.856440
-0.319217 0.038773 0.242536
-0.204183 0.667115 0.825631
-0.086975 0.789418 0.777825
-0.575665 0.347086 0.897487
0.095442 0.576241 1.062410
0.110740 0.364864 1.275305
-0.033989 0.162137 0.947963
0.021483 0.801099 0.720361
0.183455 0.358069 0.763807
0.037880 0.714082 0.475344
0.612064 0.100666 0.622117
0.138961 0.499592 0.449812
-0.222877 0.726001 0.824681
0.316963 -0.084307 0.247732
-0.021710 0.801983 0.596080
0.085700 0.630141 0.676675
0.374576 0.615047 0.704138
0.205257 0.466249 0.212497
0.281990 0.106060 0.157013
0.000110 0.053612 0.879950
-0.585927 0.116172 0.969448
0.218513 -0.081735 0.714681
-0.402688 0.456225 0.874152
0.311855 -0.136911 0.720973
0.239796 0.255454 0.372228
0.231569 0.393604 1.208798
-0.225982 0.154849 0.980748
0.323533 -0.005783 0.695195
0.362842 0.236331 0.535387
-0.199646 0.463781 0.280102
-0.096345 0.096812 1.246135
0.133285 0.284542 0.209928
0.140654 0.495421 1.076671
0.294175 0.002327 1.183384
-0.466864 0.489387 0.456502
-0.010282 0.770849 0.846502
0.398761 0.372994 0.429657
0.023533 0.639952 0.751221
-0.281550 0.146473 0.793606
0.197323 -0.179733 0.542914
0.281552 -0.033689 1.001972
0.063979 -0.031980 0.973769
0.014350 0.601324 1.058598
0.171492 0.593858 0.831872
0.103461 0.121470 0.608082
0.317440 0.592346 0.543820
-0.145775 0.193237 1.065197
-0.349117 0.283217 0.189540
-0.203968 0.733273 0.655984
-0.135799 -0.091726 0.571947
0.352990 0.587293 0.805446
0.311462 0.060549 0.714936
0.382116 0.100301 0.622011
-0.148412 0.126758 0.996874
-0.434026 0.198880 1.086900
-0.372000 0.457123 0.562107
0.126528 0.223787 0.185116
0.301967 0.333700 0.191724
0.410908 0.352329 0.794326
-0.195397 0.736490 0.583111
0.124559 0.465615 0.201265
0.265524 0.340597 0.861530
0.267771 0.569401 0.954858
-0.101526 0.615928 0.499194
-0.535564 0.043111 0.673984
0.188118 0.239608 0.457083
0.125515 0.598733 1.055163
-0.158422 0.673502 0.548582
-0.003139 0.638822 0.599640
0.248650 0.528168 1.101807
0.242651 0.646342 0.876496
0.375293 0.208314 0.451246
0.320595 0.188616 0.416566
-0.138963 0.614190 0.920609
-0.010121 0.747428 0.578211
-0.159470 0.648822 0.416875
-0.237683 0.183139 0.858562
-0.282109 0.028586 0.984963
0.367071 0.241972 0.466479
0.382817 0.002058 0.890547
0.466349 0.458023 0.902470
0.167137 0.545314 0.942493
0.374227 0.249384 0.832371
-0.221047 0.149870 0.112796
0.182732 0.778894 0.801739
-0.173283 0.080248 0.978793
0.201407 -0.196082 1.039350
0.039170 0.593816 0.405367
0.004693 0.304455 1.019618
-0.084746 0.429738 0.842969
0.184241 0.705662 0.702802
0.152707 0.474197 0.988860
-0.255100 0.089170 0.740383
-0.083624 0.765571 0.706773
-0.372287 0.555958 1.026496
-0.285842 0.728002 0.828458
0.096592 -0.129996 0.614071
-0.443405 0.314936 0.330598
-0.003611 0.575492 0.755531
0.259973 0.573194 0.960252
-0.340416 0.215041 0.367147
0.063898 0.392151 1.259161
0.444306 0.184119 0.561273
0.178273 0.128839 0.983680
0.481134 0.437194 0.745412
-0.151171 0.613479 0.748780
0.351412 0.599437 0.440925
0.106618 0.346965 0.371819
0.444479 0.564608 0.790947
-0.163359 0.641151 0.950137
0.065161 0.286274 1.266544
0.026566 0.680024 0.925895
0.310674 0.034143 0.674959
-0.313269 0.296096 1.140001
-0.299908 0.116760 1.137562
-0.392128 -0.186425 0.453831
-0.280920 0.346887 1.118350
-0.315250 0.513738 0.882148
-0.182934 0.363123 1.182129
-0.224994 0.076567 0.372592
-0.018429 0.792805 0.584857
0.359866 0.547738 0.759428
0.245160 0.187775 0.991541
0.124386 0.444414 1.171667
0.065669 0.520108 1.072108
0.170040 0.647151 0.468701
0.110367 0.430193 0.260624
-0.214242 0.397014 0.185855
-0.391073 0.453965 0.901720
-0.232421 0.134625 0.848182
-0.353394 0.510355 0.536442
-0.297305 0.478390 0.377106
0.142830 0.419060 1.227143
0.110782 0.029115 0.641464
-0.437570 0.521453 0.482985
-0.159060 0.178846 0.160654
-0.105298 0.174899 0.974682
-0.133970 0.387273 0.319641
-0.175566 0.349441 1.283951
-0.158499 0.479203 0.835546
0.271596 0.150450 1.051175
0.104467 0.562097 0.642319
-0.209116 -0.039087 0.346119
-0.056973 0.735774 0.744390
-0.120875 0.162693 0.914892
-0.280282 0.584973 0.467083
-0.602218 0.203082 0.633649
-0.120997 0.470032 0.165681
-0.066498 0.416363 0.675311
0.173859 0.454494 0.744510
0.566930 0.057246 0.558710
-0.380515 -0.067107 0.363210
-0.250128 -0.029955 0.312867
0.364557 0.466987 0.858066
-0.069222 0.400027 1.298321
0.390625 -0.186535 0.548397
0.252030 0.701587 0.578329
0.197924 0.238202 0.897134
-0.201462 0.357833 0.894131
-0.201336 0.329717 0.515790
0.405281 -0.187900 0.587729
0.332490 -0.021153 1.133002
-0.289621 0.446488 0.821398
0.055816 0.662111 0.473516
0.082182 0.052336 1.181456
-0.388501 0.392691 0.911271
-0.347327 0.423456 0.952548
-0.507499 0.278068 0.465125
-0.158214 0.540581 0.249653
0.602671 0.254497 0.543022
0.384375 -0.081467 0.278511
-0.023143 0.607944 0.342388
0.165354 0.007165 1.298112
0.517000 0.391522 0.610129
0.294633 -0.147243 0.824565
0.372580 0.449429 0.895948
0.448966 0.342015 0.323574
0.229826 0.664993 0.574941
-0.148862 0.696621 0.999811
0.186016 0.679912 0.500586
0.261423 0.556670 1.096442
0.345251 0.424947 0.264221
0.055316 0.715959 0.413884
0.010322 0.505576 0.757027
-0.292365 -0.031220 0.552259
0.040650 0.700239 0.974697
0.188727 0.333140 0.934437
-0.503273 0.041536 0.385866
0.309217 0.460952 0.214920
-0.007043 0.762227 0.868728
0.391251 0.494870 0.907645
0.002436 0.487415 1.019283
0.345838 0.363902 0.961556
-0.422545 0.352948 0.468652
0.023086 0.637898 0.537480
0.091611 0.591460 0.874189
0.192899 0.335893 1.026072
-0.110105 0.626199 0.748983
-0.228776 0.640552 0.922060
-0.458068 0.371173 0.965387
0.310643 0.580860 0.597313
-0.245484 0.507328 1.020865
0.091827 -0.069151 0.387696
-0.320220 0.414322 1.149078
-0.054836 0.803052 0.606346
0.582883 0.358285 0.722605
-0.042878 0.399489 0.864727
-0.009825 0.754372 0.452008
0.191209 0.718178 0.520202
-0.039050 0.426511 0.238879
0.004443 0.377478 0.157962
0.158729 0.602260 0.951719
0.211353 0.109990 0.719688
0.188193 -0.096835 0.545238
0.065014 0.362788 1.072878
-0.162122 0.335592 0.976356
0.304239 0.611304 0.925896
0.002939 0.319697 0.936705
0.367965 0.573835 0.753834
0.080893 -0.158699 0.977007
0.142269 0.398893 0.952976
-0.047770 0.313259 1.184707
0.240963 0.583639 0.599945
0.033133 0.345977 1.033595
0.450598 0.360405 1.016790
0.228702 0.486899 0.661279
-0.253142 0.410288 0.859242
0.137429 -0.223868 1.103898
-0.026254 0.487504 0.949895
-0.076748 0.343487 0.940397
-0.293235 0.582306 0.411949
0.168460 0.234193 0.106696
-0.594335 0.340561 0.555987
-0.153953 0.554462 1.067968
-0.311782 -0.011696 0.536272
0.150304 0.154262 0.410928
0.299405 0.605367 0.749957
0.295896 0.461480 0.628575
0.066557 0.800774 0.648876
-0.156974 0.308183 1.057010
0.008730 -0.051933 0.713641
0.287502 0.095179 0.830256
-0.109657 0.182973 0.958415
-0.071513 0.653895 0.697271
-0.379610 0.573272 0.862148
0.308069 0.638349 0.897486
-0.112765 0.130350 0.284563
-0.198197 -0.082037 0.575064
-0.378760 0.442086 0.876803
0.136426 0.537509 0.784398
-0.091476 0.025502 0.871895
0.420890 0.503515 0.637360
-0.207224 0.007529 0.154114
0.213708 0.569113 0.976666
-0.095235 0.419487 0.161050
-0.095091 0.200134 1.039918
0.352660 0.027646 0.864708
0.598887 0.254127 0.915645
-0.160700 0.458374 0.690428
-0.176792 0.319132 0.889159
0.071191 0.370485 1.036023
-0.064273 -0.147437 0.705403
0.382466 0.423440 0.258615
-0.018795 0.529962 0.405595
-0.163415 0.755173 0.545417
0.068262 0.685553 0.772795
-0.235412 0.654693 0.395550
-0.388291 -0.031025 0.385801
0.054411 0.235656 0.663892
0.333344 0.230584 1.018662
-0.172650 0.723085 0.634897
-0.335953 0.274902 0.408547
0.072547 0.495483 0.888385
-0.194262 0.665022 0.633921
-0.101681 0.367671 1.047932
-0.232227 0.559115 0.300263
-0.325882 -0.124340 1.024744
-0.090349 0.626697 1.010021
-0.004480 0.252324 1.144278
0.110205 0.539308 1.070928
0.124148 -0.166782 0.663011
-0.046815 0.372644 1.262242
0.219564 -0.055171 1.185105
-0.256783 0.573761 0.414926
0.307472 0.299391 0.460922
-0.426256 0.286481 1.002889
0.360781 -0.090854 0.980158
-0.162278 0.170720 0.979301
0.288595 0.596788 0.567866
0.110224 0.385537 0.508865
0.194168 0.234986 1.310994
0.197003 0.602025 0.613918
0.274301 0.305506 1.177104
-0.001476 0.068047 0.985844
0.495903 0.385850 0.727645
0.279911 0.625247 0.767614
-0.145580 0.086995 0.730276
0.307996 0.577851 0.490846
-0.248736 0.028247 0.225766
-0.257327 0.415044 0.194364
0.451412 0.156767 0.959594
0.230459 0.428843 0.716143
0.101175 0.770179 0.629632
-0.480516 0.567526 0.555503
-0.352909 0.372698 0.276536
0.125807 -0.099237 0.439423
0.229337 0.450099 0.618624
-0.067580 0.627462 0.763997
0.101306 0.164070 0.358497
0.298563 0.432990 0.496725
-0.128631 0.506178 1.094012
-0.327477 0.149979 0.783308
-0.044773 0.295790 0.076544
0.133667 0.258228 1.143073
-0.006563 0.552207 0.935687
-0.534589 0.160857 0.616826
-0.305780 0.007908 1.240841
0.475318 0.429515 0.902209
-0.412470 0.232467 0.693319
0.324208 0.356720 0.460963
0.385379 0.104927 0.523861
-0.235055 -0.042307 0.400884
0.448355 0.467759 0.720160
-0.252693 0.626485 0.595527
-0.192784 -0.213751 0.619650
-0.141223 0.089500 1.040652
0.472076 0.546896 0.776363
-0.001964 -0.026040 1.228699
0.075005 0.236709 1.134666
-0.299173 0.460212 0.250048
-0.085481 0.317868 1.011567
-0.056215 0.381885 1.211017
0.106764 -0.184919 0.508516
-0.069380 0.600893 0.648634
-0.055463 0.318460 0.579294
-0.084947 0.291220 0.259441
-0.011102 0.590833 0.785481
-0.042129 0.281473 1.044276
-0.400954 0.390002 0.823366
-0.513307 0.187544 0.496354
-0.145733 0.117676 1.278349
-0.010636 0.477988 1.029852
-0.343448 0.668423 0.759587
0.164740 0.445989 0.638995
-0.142680 0.427217 0.497115
0.056658 0.784330 0.785296
0.386802 0.334492 0.940777
-0.303540 0.269707 0.852302
-0.207714 0.509962 0.708231
-0.272210 0.029424 0.945264
0.093494 -0.007915 0.776874
-0.045176 0.482963 0.342545
0.381022 0.217411 1.204823
-0.088416 0.120057 0.768220
0.368604 -0.049168 0.901566
-0.546786 0.271731 0.577077
-0.088882 0.709929 0.465014
-0.128314 0.389806 1.145487
-0.514459 0.071067 0.598035
-0.191375 0.044905 1.150315
0.199136 0.510707 1.065256
-0.109531 -0.076898 0.606109
-0.327651 0.487812 0.292866
-0.371258 0.227666 0.696401
0.291442 0.557383 0.911267
-0.150063 0.600744 1.098144
-0.028406 0.746309 0.686575
0.443255 0.197605 0.718846
0.159207 0.447108 1.197902
-0.428640 0.534245 0.724143
0.231959 0.320228 1.231330
-0.203886 0.087707 0.722680
-0.338696 0.562946 0.705204
-0.403212 0.365577 0.517276
0.260545 0.414188 0.287858
-0.206595 0.617736 0.868141
-0.059227 0.742589 0.504084
-0.341020 0.154213 0.556131
-0.430757 -0.045755 0.641917
-0.455371 0.512496 0.492763
-0.365076 0.073320 0.350036
-0.121637 0.758401 0.808876
0.224239 0.721786 0.558688
-0.366402 0.117378 1.014217
-0.262371 0.445555 0.921444
0.206352 0.603986 0.733763
0.065290 0.484907 0.975055
0.136728 0.235954 0.452848
-0.379309 0.101957 1.026110
0.029622 0.426771 1.238961
0.047565 0.600873 1.002367
0.335506 0.207064 0.817695
0.262372 0.109254 0.482935
-0.199039 0.697308 0.463946
-0.348350 0.590656 0.861945
-0.104878 0.589845 1.074850
0.093330 -0.066396 0.856764
-0.388786 0.481605 0.655939
-0.351362 0.293400 0.990889
0.340405 0.588983 0.906691
0.424480 0.184639 1.052542
-0.076570 0.552880 0.960045
0.112494 0.385962 1.092923
-0.480026 0.050398 0.518029
-0.208332 0.313161 0.143423
0.356584 0.452350 0.865784
0.334790 0.188576 0.711599
-0.355134 0.214129 0.793322
-0.140614 0.534598 1.174489
0.017128 0.675581 0.937806
0.566154 0.191108 0.540121
0.136909 0.040144 0.817784
-0.213433 0.466557 1.219292
-0.144793 0.716458 0.399163
-0.013934 -0.089257 0.166838
-0.509688 0.293955 0.505170
-0.021269 0.611710 0.618266
-0.092126 0.572259 0.852671
0.098527 0.339645 1.041029
-0.428556 0.507578 0.787626
-0.035882 -0.055981 0.914909
-0.295131 0.150612 1.150624
0.324399 -0.048898 0.626316
-0.148681 0.337008 0.582459
0.092407 0.440850 1.109804
-0.328848 0.221471 1.057591
0.563798 0.340105 0.743487
-0.165577 0.371607 1.012296
0.482456 0.288790 0.733561
0.315576 0.480089 1.092308
0.191502 0.373509 0.799908
0.145156 0.274792 0.495360
-0.433219 0.268397 0.471349
-0.215384 0.045127 0.642851
0.342245 0.259527 0.530059
-0.508254 0.128735 0.515600
0.053506 0.482247 0.800462
-0.277683 0.020435 0.802120
0.004480 0.611887 0.898953
-0.142740 0.273950 1.057625
0.005766 0.120752 1.037320
-0.259976 0.091626 0.908541
-0.083258 0.223761 0.587198
0.403014 0.483293 0.360745
-0.137030 0.556933 0.719799
0.143037 0.689798 0.375015
-0.370437 0.230730 0.910119
0.009012 0.097006 0.968138
-0.141450 0.461689 0.533349
-0.094411 0.163039 0.407901
0.402027 0.494753 0.464537
0.259579 0.594634 0.394255
-0.253307 0.487409 1.082805
0.108163 0.216282 1.309052
-0.314780 0.166810 0.904832
0.302873 -0.016228 0.457556
-0.324344 -0.125364 0.745107
0.126503 0.063176 0.094125
-0.165618 0.633745 0.825684
0.114881 0.650966 0.618358
0.189257 0.123437 0.135279
-0.512782 0.351140 0.495060
-0.499122 0.163491 0.781987
0.249956 0.363970 0.968114
-0.312967 0.386312 0.213153
-0.220726 0.391421 0.969565
-0.370725 0.398188 0.702107
-0.289129 0.451399 0.954562
0.113148 0.784783 0.770474
0.568354 0.314989 0.834114
0.001603 0.710491 0.890631
0.112167 -0.241575 0.784041
-0.360432 0.244466 0.585595
0.045334 0.561835 0.301899
-0.024858 0.185807 1.189204
-0.098170 0.601898 0.872674
-0.250838 0.370407 0.188874
-0.378448 0.213130 0.847622
-0.084309 0.474524 1.037222
0.189194 0.672936 0.505823
0.269947 0.469207 0.536064
0.339124 -0.001177 1.132622
0.396669 0.516992 0.774573
-0.333408 -0.142231 1.047734
-0.218501 0.497466 0.853350
-0.277230 0.510523 0.710611
0.053294 0.730416 0.607776
0.268277 0.117332 0.920352
-0.290148 0.146207 0.879602
-0.174512 0.498246 1.112053
-0.260458 -0.078079 0.483284
-0.071620 0.574140 0.524186
0.122014 -0.030715 0.942085
0.418828 0.413967 0.606751
-0.029481 -0.025301 0.941361
-0.342013 -0.149847 0.966898
0.245371 0.153184 1.214647
0.212577 0.323740 0.978618
0.123671 0.409574 0.184111
0.160001 0.017950 0.877305
-0.165620 0.237830 1.290155
-0.222290 0.395771 0.946804
0.275456 0.378668 0.296033
0.055461 0.551723 1.082019
0.402720 0.460948 0.783862
0.003864 0.593073 1.137710
0.343799 0.123338 0.861542
0.356855 0.440588 0.574131
0.489292 0.188919 0.302451
0.225248 0.610268 0.780009
-0.063760 0.203110 1.075828
0.135156 -0.111679 0.225640
0.215143 0.228166 0.723196
-0.246032 0.116474 0.608170
0.103664 0.793108 0.731027
-0.101924 0.149286 0.808975
0.199122 0.615043 0.307135
-0.272583 0.360988 0.831801
-0.235362 -0.000208 0.621395
-0.184319 0.523940 1.092416
0.035745 0.412315 1.238634
-0.427113 0.141800 1.050718
-0.330237 0.676162 0.855245
-0.291073 -0.099171 1.041892
-0.095196 0.631724 0.423359
0.185445 0.761723 0.865307
0.141878 0.764772 0.706175
-0.201195 0.137203 0.967197
-0.316111 0.122652 0.185261
-0.005047 -0.052547 0.718861
0.305025 0.172837 0.489513
0.377074 0.143374 0.487581
0.279189 0.595227 0.803746
-0.139767 -0.036393 0.995081
0.560699 0.159490 0.929445
0.221567 0.699466 0.903195
0.209292 0.669544 0.406758
-0.073663 0.486155 0.265177
0.526588 0.401726 0.894302
0.083752 0.738909 0.948004
0.307706 0.114935 1.029508
0.265945 0.528306 0.376005
0.001567 0.218923 0.328946
0.257306 0.655226 0.936905
-0.133183 0.120424 0.675325
-0.095633 0.777758 0.820205
0.224201 0.731457 0.836150
-0.300073 0.720324 0.640150
0.345184 -0.141646 1.066190
0.027752 0.685897 0.400890
0.514640 0.320757 0.727006
0.499865 0.316670 0.338086
-0.049023 0.579145 1.079650
0.131681 0.616746 1.073656
-0.405066 0.560806 0.831442
-0.114543 0.200767 1.321039
0.494444 -0.044369 0.751373
-0.160817 -0.087509 0.835060
0.600691 0.157019 0.729224
0.388702 0.323392 1.161891
-0.168448 0.022939 0.683511
0.519690 0.350871 0.483238
0.225087 0.018285 1.190483
-0.204583 0.136734 0.997727
0.208625 0.195297 0.967890
-0.357877 0.526700 0.737215
-0.197360 0.556295 0.261805
0.051998 0.455955 0.262774
0.394246 0.459038 0.358110
0.051984 0.214141 1.148353
-0.345497 0.113742 0.888013
-0.153872 -0.149321 0.511618
-0.118112 0.194618 1.044683
0.255515 0.393506 0.800220
-0.160036 0.679924 0.666695
0.185869 0.335480 0.492338
0.123955 0.648203 1.087032
0.057052 0.151491 1.084485
-0.040820 -0.136083 0.660958
-0.339980 -0.103300 0.872189
0.124159 0.752755 0.910597
-0.009672 -0.008918 0.994636
0.077048 0.294918 1.203362
-0.294645 0.534674 1.071661
0.123761 -0.261425 0.800255
0.443044 0.016902 0.757672
-0.185392 0.589958 0.772905
0.268847 0.583981 1.022920
0.356682 0.357032 0.923084
-0.209566 0.417878 1.066570
-0.332506 -0.066187 0.578066
0.532589 -0.112765 0.821045
0.424902 0.366588 0.665123
0.549238 0.216146 0.619619
-0.129593 -0.119258 0.512913
0.108591 -0.074257 0.951901
-0.204009 -0.080791 1.126169
-0.248076 0.279400 0.574330
-0.530541 0.394529 0.520872
0.018727 0.205627 0.811545
0.493985 0.181378 0.865415
0.262764 0.095850 0.600414
0.108489 0.691962 0.774848
0.206625 0.158718 0.956869
0.259642 0.049373 0.195415
-0.521449 -0.078972 0.501830
-0.071839 0.489913 1.036844
-0.124177 0.209859 0.472174
0.311571 0.050368 0.355743
0.088490 0.445413 0.832496
-0.309229 0.175331 0.791587
-0.478896 0.325433 0.599084
0.142342 0.477257 0.927505
-0.191485 0.691899 0.680800
-0.052838 0.190036 1.316022
0.354230 -0.105303 0.748498
-0.368374 0.401274 0.641450
0.088223 0.474616 1.218145
0.109182 0.257388 0.081709
0.239292 0.147623 0.243691
-0.393228 -0.065730 0.620029
0.036604 0.506120 0.948537
-0.097302 0.482837 0.754483
0.290756 0.488358 0.226323
0.175689 0.424755 1.063251
0.262123 -0.041850 0.480333
-0.238056 -0.045584 0.145791
0.140721 0.306005 0.892466
-0.345020 0.098415 0.798141
-0.127870 0.467512 0.607126
0.096023 0.480320 0.696096
-0.143934 0.145702 1.081128
0.234680 0.246191 0.515163
0.023554 0.037365 0.705016
0.116296 0.505839 0.306696
-0.293027 0.476596 0.786917
-0.112077 0.650056 0.901674
-0.520810 0.217068 0.603967
0.007102 0.774912 0.816994
-0.092201 0.447138 0.298773
0.075467 0.173553 0.550967
0.345130 0.287287 0.431497
0.177127 0.553766 0.497649
-0.056427 0.577150 1.041449
-0.214300 0.570109 0.870798
-0.029505 0.697438 0.787304
0.103045 0.611287 0.478925
0.149631 0.662881 0.808239
-0.024715 0.268982 0.143649
-0.084115 0.192356 1.080195
0.056279 0.322990 0.998123
-0.095350 0.416280 0.118640
-0.349392 0.385364 0.303316
-0.184798 0.253550 0.566107
-0.394118 0.618473 0.596683
0.014393 0.540984 1.036677
-0.146078 -0.210642 0.433748
-0.108262 0.181489 1.069796
0.306675 0.460813 0.231024
-0.408335 0.573135 0.662673
-0.276640 0.274532 0.202767
-0.290431 0.223495 0.768829
-0.256800 0.671836 0.769206
0.259254 0.627981 0.819051
-0.299907 0.213408 1.142092
0.088760 -0.074460 0.976170
-0.003867 0.729222 0.531818
0.461311 0.288713 0.664391
0.118630 0.606054 0.376833
-0.124127 0.335220 0.649114
-0.270076 0.163819 0.843604
0.163247 0.497680 1.045939
-0.227164 0.450884 1.053642
0.334404 0.117189 0.953350
-0.306836 0.493467 0.824813
-0.083969 0.794811 0.815530
-0.294436 0.037501 0.704621
0.351358 0.229987 0.614997
0.011303 -0.074757 0.743360
0.299988 0.336528 0.995359
0.332687 0.040712 0.672578
0.324841 0.095122 0.305625
-0.395464 0.158514 0.543928
-0.021450 0.309209 1.121765
-0.568622 0.117238 0.760335
0.358617 0.365164 0.679449
-0.600860 0.075635 0.628287
-0.273939 -0.156586 0.812167
0.094064 0.567230 0.597501
0.097865 0.284246 0.373715
-0.020978 0.100484 0.662866
0.175918 0.502736 0.563736
0.261768 0.227020 0.906612
0.599643 0.105689 0.571219
-0.269652 0.589956 0.574566
-0.498631 0.207502 0.911172
-0.250682 0.643296 0.763908
0.129485 0.608327 0.623824
-0.246794 0.251601 1.190360
0.149748 0.252224 1.020856
-0.247443 0.314046 0.611127
0.333736 0.236913 0.352492
0.160985 0.769313 0.585792
0.282725 0.488366 0.571937
0.414617 0.495545 0.838180
-0.064577 0.588896 1.092839
-0.199460 0.527874 0.395390
-0.260492 0.683916 0.532975
0.363737 0.574718 0.355698
-0.090807 0.735084 0.601196
-0.012323 0.490486 0.277180
-0.297083 0.324063 1.090096
-0.075621 0.733692 0.886578
0.136879 0.454933 1.008178
0.258613 0.280646 0.415869
-0.133060 0.207954 0.266329
-0.146706 0.265691 1.144828
0.072211 0.318533 0.304410
-0.047763 0.499854 0.195696
0.304930 0.306420 0.507063
0.081072 0.482323 0.658864
-0.164834 0.301970 1.043844
0.229933 0.058209 0.748284
0.240297 0.465579 0.607904
-0.217361 -0.235562 0.907268
0.000173 0.563801 0.284955
0.131184 0.057943 0.697256
-0.384723 0.384078 0.821640
0.263249 0.178120 0.882703
0.212334 0.587153 0.693967
0.227199 0.709369 0.775406
0.246334 -0.061432 0.712913
-0.176268 0.521082 0.460190
-0.296454 0.671009 0.645156
-0.155447 0.228837 1.229839
0.276734 0.340743 0.396567
0.182093 0.578685 0.817030
-0.095756 0.096145 1.292470
0.018296 0.281963 1.227336
0.125591 0.660140 0.514656
-0.568125 0.408123 0.873429
-0.100356 0.587397 0.567507
-0.086670 0.310662 0.172475
0.128018 0.664844 0.814237
-0.034811 0.185091 1.016488
0.174029 0.366741 1.048324
-0.174429 0.621955 0.510966
0.126148 0.240576 0.995123
-0.158668 0.294738 0.176484
0.392786 0.494699 0.779543
-0.420555 0.495400 0.321911
0.064565 0.750536 0.659286
-0.467493 0.121135 1.007948
-0.244610 0.567361 0.760501
0.482045 0.390395 0.831991
-0.230389 0.645393 0.461260
0.247734 0.223684 0.403913
-0.110590 0.363755 0.904052
-0.118623 0.298288 1.074868
0.132223 0.345178 0.693335
0.006516 0.374693 0.341467
0.399442 0.327278 0.649949
0.155525 0.770381 0.646418
0.253450 0.708572 0.841262
0.234446 0.243883 1.170637
0.102214 0.727004 0.514606
-0.283090 0.567387 0.959153
0.036705 0.543871 0.961245
0.480702 0.512602 0.616084
-0.571560 0.404344 0.485011
-0.041162 0.765248 0.541345
-0.174535 0.055652 0.929057
-0.416431 0.124419 0.562861
0.240961 0.339070 0.326353
0.229523 0.076636 0.513437
-0.155893 0.501849 0.618674
0.321525 0.087321 0.730194
-0.239013 0.473642 0.690835
0.394582 -0.175240 0.382058
0.025807 0.034261 0.765558
-0.326081 0.558706 0.449218
0.601487 0.031671 0.908376
-0.150676 0.142616 0.785106
0.186242 0.715316 0.574073
0.267713 0.160833 0.126068
0.304937 0.183014 0.958278
-0.235532 0.254552 0.840705
0.078061 0.267760 0.431373
0.069394 0.757356 0.744762
0.266085 0.307577 0.962762
0.414738 0.055756 0.523927
-0.159975 0.492786 0.219430
-0.189781 0.227291 0.214966
-0.471321 0.128839 0.687980
0.227131 0.678879 0.572853
-0.290099 -0.195647 0.790975
0.252906 0.355361 0.935274
0.559386 0.365609 0.771465
0.194280 0.261719 0.158903
0.163284 0.378416 0.605039
0.162175 0.228002 1.101785
-0.099978 0.742587 0.893876
0.280631 0.683704 0.800612
0.194078 -0.113203 0.598264
-0.228795 0.352740 1.052489
-0.092250 0.334945 0.944014
0.574502 0.321616 0.670628
-0.112323 0.299458 0.996586
-0.227728 0.315870 1.194205
-0.470841 0.486447 0.694663
0.056620 0.409413 1.184700
0.464504 0.533884 0.543977
0.132631 0.566403 1.089755
-0.333486 0.431828 0.345278
0.309271 -0.137217 0.960327
-0.377926 0.382016 0.575577
0.183545 0.434374 0.979909
0.045117 -0.172320 1.089707
-0.018636 -0.070873 1.205546
-0.359392 0.045643 0.665813
-0.052407 0.149096 0.073277
0.134541 0.019156 0.614159
-0.391590 0.419463 0.387397
-0.303062 0.194136 0.945289
0.130516 0.764678 0.721088
-0.396232 0.604387 0.451775
-0.070650 0.195249 1.095078
0.302275 0.372843 0.886877
-0.188804 -0.120981 0.609591
0.305578 0.452159 0.377599
-0.213622 -0.066703 1.033469
-0.250997 0.638845 0.585005
0.123310 0.388440 0.218809
0.137953 0.536296 0.359748
0.332641 0.272620 0.724100
0.047104 -0.015315 1.070244
-0.138469 0.024517 1.158095
0.480257 0.017951 0.748752
0.350502 -0.082440 0.736406
-0.180263 0.473199 0.359802
0.226373 0.362340 0.761146
-0.350193 0.335815 0.638696
-0.401162 0.417377 0.594313
0.356069 0.259813 0.954318
0.033427 0.559361 0.287101
-0.273469 0.321194 0.994757
-0.188509 0.230337 1.290267
-0.164162 0.097179 0.936621
-0.178117 0.297780 0.987380
-0.367750 0.501159 0.561466
0.301717 0.397086 0.925311
-0.302930 0.254902 0.687861
-0.093654 0.015560 0.768898
-0.006822 0.482122 0.432057
0.111152 0.256176 1.107413
0.248369 0.539559 1.127669
0.040532 0.326557 0.351696
-0.048776 0.291619 1.232147
-0.414358 0.498255 0.605960
0.484768 0.542914 0.741918
-0.242414 0.044502 1.096484
-0.272469 0.398536 0.989993
0.104437 0.681012 0.731997
0.243186 0.469016 0.705508
0.341445 0.174651 0.510668
-0.085018 0.432239 1.228310
-0.337182 0.303790 1.017604
-0.191641 0.570380 0.577382
-0.242804 0.247509 0.667360
-0.098262 0.370846 0.841259
0.398057 0.053464 0.750453
0.038674 -0.011961 0.853747
-0.131377 0.337294 1.084333
-0.384580 0.239187 0.552998
-0.357964 0.091717 0.261908
-0.477947 0.363330 0.629932
-0.046956 0.404583 0.195078
0.114245 0.166843 0.547988
0.257772 0.588915 0.480868
0.526423 0.348231 0.947477
-0.292884 0.497474 0.319275
-0.310820 0.202635 1.197437
0.500229 -0.057628 0.824915
0.174781 0.163176 1.297198
0.168958 0.285733 1.171930
-0.287726 0.450308 0.949517
-0.141372 0.207051 0.728756
-0.332729 0.609642 0.478400
0.578627 0.045910 0.501671
-0.250904 0.538807 0.785057
-0.059964 0.036259 1.261802
0.180122 0.453261 1.073839
-0.309801 -0.075034 0.523381
-0.623536 0.218857 0.890478
-0.269880 0.314903 0.874177
0.423281 0.323457 0.312490
-0.277543 0.521810 0.420160
0.309657 0.215082 0.913325
0.004546 0.537649 1.122831
0.480632 0.225692 0.391820
-0.242922 0.509046 0.877586
0.423689 -0.078709 0.861972
-0.011204 0.715470 0.964427
0.073068 0.732307 0.829938
-0.226657 -0.162829 1.036535
0.276636 0.374679 0.469849
0.202050 0.413562 1.048225
0.450479 0.426915 0.755975
0.310322 0.666120 0.866288
0.077519 0.040006 0.939093
-0.274933 0.477972 0.305467
-0.141992 0.302616 1.112463
