ply
format ascii 1.0
element vertex 1689
property float x
property float y
property float z
end_header
-0.411902 -0.327876 1.101960
0.331601 -0.648205 0.584957
0.380468 -0.496356 0.713357
-0.362035 0.030468 0.715385
-0.001798 -0.150278 0.932690
0.154508 -0.150194 0.347200
0.272658 -0.406723 1.108687
-0.045679 -0.148081 0.256113
0.581821 -0.016795 0.611576
0.319083 -0.174783 1.088537
0.081437 -0.763189 0.717167
0.164909 -0.703215 0.624844
0.051964 -0.086707 0.973386
-0.390876 -0.197282 0.201977
0.239948 -0.663791 0.695827
-0.263261 -0.536110 0.829178
0.089001 -0.527839 0.295089
0.248782 -0.702273 0.739471
-0.243125 -0.232649 0.335630
0.179865 0.240181 0.941190
0.026963 0.086978 1.197051
0.074854 -0.140982 1.309675
-0.014025 0.207850 1.065048
0.321246 0.043281 1.227409
-0.174898 -0.531965 0.870199
-0.173522 -0.274158 0.619171
-0.464550 0.043338 0.451641
0.127667 -0.065355 0.623055
-0.199971 -0.312414 1.146145
-0.137854 -0.276935 1.279487
-0.124607 -0.661707 0.523267
-0.042714 -0.488362 0.745491
-0.563009 -0.446796 0.797119
0.322075 -0.402852 1.080908
0.589377 -0.329858 0.771531
0.260665 -0.184422 1.119770
0.395292 -0.378742 0.597620
-0.283811 -0.316221 0.913025
-0.172644 -0.541362 0.236054
0.411885 -0.299900 0.734907
0.056705 0.216815 0.775233
-0.406760 -0.184994 0.495478
-0.528188 -0.200411 0.637845
-0.332011 -0.588235 0.885492
0.213955 -0.526777 0.293972
0.257307 -0.075864 0.588282
0.329992 -0.257633 0.537114
0.251869 -0.441355 0.879582
0.238429 -0.107769 0.911618
0.292502 0.002066 0.986259
-0.480728 -0.319772 0.669816
-0.337198 -0.563362 0.691481
-0.002024 -0.261115 0.321420
0.179298 -0.306731 0.411550
-0.211125 -0.479031 0.323431
0.137005 0.024246 1.049643
0.366514 0.105148 0.836561
0.267405 -0.454724 1.046416
-0.316451 -0.440288 0.317380
0.162916 -0.577460 0.845410
0.316032 -0.465585 0.314987
-0.239952 -0.584442 0.910693
0.332456 -0.644101 0.937559
0.434149 -0.101443 0.834394
-0.024899 -0.530594 0.484656
0.363749 -0.188643 0.877272
-0.385612 -0.118801 1.127425
-0.436034 -0.260368 0.445244
0.501306 -0.291144 0.712740
-0.295575 -0.554362 0.866432
-0.151624 -0.396150 0.546445
0.115435 -0.194436 1.116212
0.221643 -0.393176 0.343836
-0.225987 -0.038270 1.241302
0.214767 -0.333026 0.908560
0.000469 -0.719737 0.723192
-0.099693 -0.077096 0.766773
0.151488 -0.690642 0.672696
-0.461530 -0.543819 0.507525
0.081369 -0.214487 0.542756
0.160317 0.053322 0.986016
-0.346608 -0.404716 1.021295
-0.030761 -0.375990 0.955735
-0.034244 0.136350 0.665769
0.103230 -0.638223 0.937122
0.437440 -0.328197 0.508277
-0.223260 -0.383063 1.142128
0.510193 -0.163367 0.845956
-0.170083 -0.028048 1.145721
-0.236307 0.015188 0.565402
-0.316837 -0.043916 0.764052
0.324584 0.037843 0.537960
-0.127064 -0.547912 0.846238
-0.541574 -0.179737 0.748148
0.239146 -0.099073 0.990565
-0.121658 0.230532 0.378079
0.502960 -0.221666 0.915314
0.309021 -0.200351 0.243152
-0.086930 -0.328836 0.176892
-0.419280 -0.276469 0.781501
0.197818 0.092544 0.666928
-0.268345 -0.069701 0.996328
0.148206 -0.062731 0.825791
-0.261776 -0.205318 0.257485
-0.529823 -0.174394 0.461007
0.175214 -0.545888 0.590523
-0.091587 0.076766 0.562826
0.277432 -0.523168 0.657395
0.293283 -0.324698 0.352431
-0.070071 -0.376468 1.220883
0.256896 -0.452287 0.957006
0.484395 -0.531343 0.690877
-0.426558 -0.005646 0.620629
0.393670 -0.305227 0.993708
-0.038441 -0.041748 0.973231
-0.078286 -0.285743 0.096022
0.153861 -0.180524 0.310236
0.121200 -0.512468 0.935482
-0.329285 -0.411573 0.658902
0.257417 -0.255458 0.965180
0.212115 -0.434946 0.835017
0.267969 -0.351595 0.973386
0.334862 -0.366578 0.319762
-0.375712 -0.330513 0.533586
0.387231 -0.315007 0.747487
0.345693 -0.292178 0.995186
-0.339500 0.042713 0.924275
0.272877 -0.227294 0.989612
0.316613 -0.315712 0.561226
-0.214041 -0.053957 0.603396
0.329726 -0.533297 0.432552
-0.116006 -0.568623 0.762645
0.375888 -0.044646 0.670518
-0.110187 -0.170682 0.229366
0.109302 -0.441907 0.818714
0.274326 -0.190492 0.465154
-0.173704 0.091656 0.836186
0.147219 -0.342153 0.870137
0.172313 -0.017720 0.470803
0.595643 -0.330248 0.823951
-0.102300 -0.567539 1.047346
0.152756 -0.613700 0.799299
0.150175 -0.610561 0.650746
0.318168 0.044078 1.064523
0.369148 -0.376580 0.828096
0.440946 -0.420174 0.759586
-0.017652 -0.607253 0.359241
-0.311443 -0.177499 1.200581
0.234240 -0.108011 0.991556
0.167768 -0.557846 0.304073
0.358082 -0.223720 1.060513
-0.255023 -0.616354 0.903955
-0.356971 -0.036947 0.321155
0.116460 -0.105449 0.697863
0.310806 -0.678690 0.511149
-0.293623 -0.359471 0.938233
0.384310 -0.141268 0.817204
0.571672 -0.071800 0.856990
-0.422085 -0.082749 0.395341
0.175237 -0.708658 0.593410
-0.225643 -0.130313 0.820767
-0.527162 -0.052923 0.872234
-0.418420 -0.168824 0.687470
0.437045 -0.123792 0.644835
0.261586 -0.046104 1.034896
-0.020156 -0.274529 0.840031
-0.343335 -0.128125 0.906733
-0.434203 -0.395029 0.765849
-0.152379 -0.297998 1.110030
0.187957 -0.421440 0.757808
-0.379247 -0.647615 0.821483
-0.001911 -0.561848 1.034216
-0.450912 -0.357961 0.413844
0.055649 -0.241011 1.300338
0.236896 -0.652072 0.873363
0.257956 -0.302339 0.140335
0.270989 0.062290 0.379961
0.033345 -0.313696 1.051061
0.409799 -0.270284 0.408587
-0.611833 -0.112785 0.567481
0.248423 -0.557436 0.636549
0.147426 -0.318796 0.502216
-0.231924 -0.162055 0.990057
0.263603 0.069925 0.781892
0.074626 0.049974 0.917785
-0.437917 -0.330572 0.675691
-0.239641 -0.703425 0.632360
0.163275 -0.193035 1.021380
0.231926 -0.701511 0.949279
-0.058082 -0.162242 0.385846
0.174932 -0.507736 0.788120
-0.375919 -0.257859 0.807399
0.245259 -0.106976 0.392212
-0.358542 -0.282697 0.734757
0.154574 -0.345996 0.415979
0.279883 -0.387737 1.069308
-0.000597 -0.099156 0.911771
0.340991 -0.555010 0.893805
-0.359403 -0.413549 1.024275
0.558987 -0.004757 0.805635
0.267014 -0.487146 0.903826
-0.384468 -0.384486 0.673649
-0.065229 -0.751081 0.659605
-0.017250 -0.602205 1.018150
0.198237 -0.171937 1.020233
-0.103880 -0.061535 1.010309
-0.066616 -0.535908 0.524932
-0.054860 -0.773893 0.620393
0.172718 -0.741897 0.822304
0.206477 -0.277501 1.101076
-0.350545 0.115843 0.807657
-0.265382 -0.593698 0.604384
0.230569 -0.377354 0.988238
0.527527 -0.421459 0.765638
0.048630 -0.011688 0.811913
0.036148 -0.771380 0.531898
0.111564 0.119096 0.921695
-0.064421 -0.306407 0.899854
0.001246 -0.349991 0.397417
-0.229878 -0.379629 1.028267
-0.180944 -0.363713 1.183661
-0.327366 -0.080801 0.654554
-0.163889 -0.226749 1.147034
-0.347651 -0.296053 0.757400
-0.590964 -0.277491 0.644506
0.368952 -0.504836 0.776894
0.000122 0.028378 1.160218
0.322845 -0.269806 0.531758
0.020521 0.053940 0.777393
-0.101922 -0.628815 0.614903
0.104977 -0.703470 0.887424
0.207618 -0.260466 0.187204
0.197293 -0.385243 1.237704
0.222274 -0.344348 0.870367
-0.151734 -0.450448 0.481118
-0.090101 -0.659985 0.935080
0.273728 -0.400583 0.379537
-0.254629 -0.270344 0.293111
0.325831 -0.344441 0.507440
0.277927 0.054781 0.661082
-0.009837 -0.105099 1.086293
-0.476091 -0.247840 0.378830
0.321025 -0.307682 1.240190
0.163508 -0.065077 0.572305
0.083541 -0.669382 0.605907
-0.174806 -0.208456 0.950778
-0.246702 -0.298082 0.742481
-0.256526 -0.004277 0.249185
-0.183438 -0.472448 0.920866
-0.305371 0.050109 0.465939
-0.291934 0.074095 0.387979
-0.390853 0.109048 0.826342
-0.227257 0.087445 0.645688
-0.584872 -0.156571 0.609422
-0.191116 0.031224 0.998442
0.091014 -0.139454 1.224512
-0.144372 -0.614377 0.704091
-0.216003 -0.600180 0.645480
-0.238500 -0.223182 0.967128
-0.120167 -0.530597 1.107029
0.195051 0.049804 0.795968
-0.174538 -0.297599 0.274795
-0.405009 -0.412273 0.606896
0.142657 -0.365542 0.453469
-0.224484 -0.471901 0.943746
-0.244461 -0.715180 0.798735
-0.023218 0.170263 0.897302
-0.339720 -0.002138 0.380123
0.194820 -0.687202 0.843461
0.336637 -0.458373 0.979872
-0.134720 0.031192 1.265792
0.243743 -0.331707 0.188976
0.320501 -0.207160 0.947241
0.246338 -0.255424 0.927939
-0.072126 -0.681170 0.706928
-0.311906 -0.677413 0.909639
0.271938 -0.661048 0.838581
-0.337212 -0.366792 1.006428
0.191106 -0.551058 1.049000
0.289595 -0.428322 0.855309
-0.181061 -0.586162 1.003388
-0.014733 -0.542503 1.130604
0.436378 -0.086097 0.574043
0.032285 -0.523711 1.059420
0.306701 -0.559475 0.625218
0.355020 -0.263314 0.821509
0.082699 -0.740107 0.698495
-0.079195 -0.478538 1.015289
-0.177063 -0.597253 0.279085
-0.301425 -0.182062 0.353784
0.026847 -0.584236 1.022055
-0.027763 -0.262485 0.982628
-0.292768 -0.034672 0.724437
0.326947 -0.379093 0.902037
-0.224885 -0.457558 0.989448
-0.430363 -0.510779 0.658250
-0.635255 -0.080180 0.821885
0.230237 -0.551868 0.980596
-0.372937 -0.322247 0.565007
0.343569 -0.486572 0.859142
0.283717 0.186581 0.394430
0.378704 -0.100224 0.926186
0.558194 -0.426118 0.558251
-0.191015 0.192641 0.522401
0.187916 -0.102044 0.587344
-0.088544 -0.488256 1.055237
-0.276400 -0.673782 0.420742
0.343767 -0.183144 0.537186
0.604588 -0.136863 0.835208
-0.034588 -0.668164 0.411446
0.439670 -0.434926 0.740027
0.391560 -0.452206 0.925672
-0.091874 -0.306977 1.107259
-0.069157 -0.087670 1.125250
-0.304696 -0.308657 0.267671
0.072648 -0.736922 0.785981
0.183864 0.166436 0.748273
-0.018932 -0.096359 0.686627
-0.539911 -0.232042 0.994994
0.271443 -0.066867 0.480105
-0.295512 -0.639720 0.394378
-0.285964 -0.161099 0.577384
0.288281 -0.661506 0.882178
-0.027940 -0.729141 0.555342
-0.227980 -0.705066 0.593026
0.184569 -0.339746 1.109265
0.117366 0.129549 0.925220
-0.459665 -0.138802 0.257679
0.527814 -0.470262 0.547639
-0.263733 -0.120067 0.816289
0.238063 -0.193598 0.418425
-0.237988 -0.606703 0.599875
0.159341 -0.768816 0.543401
0.457019 -0.513120 0.517839
-0.075487 -0.650583 0.529125
-0.202311 -0.180780 0.970238
0.102056 -0.472946 0.339346
-0.425198 -0.077768 1.118052
0.267080 -0.159564 0.651421
-0.201762 -0.364486 1.277303
-0.171253 -0.516700 1.009310
-0.013247 0.113172 1.175004
-0.426037 -0.180516 0.670035
-0.060855 -0.658212 0.879191
0.111997 -0.295733 1.109285
0.311101 -0.480744 0.233291
-0.147410 -0.489833 1.232785
0.208008 -0.310692 1.017735
0.085525 -0.507279 0.731584
-0.080284 -0.317032 1.257042
-0.149431 -0.686965 0.931123
0.167636 -0.073670 0.334706
0.025754 -0.507647 0.308288
0.034380 -0.464507 0.960524
0.278039 -0.318498 0.252285
-0.266690 -0.644143 0.667780
-0.578686 -0.124060 0.461198
0.179286 -0.542711 0.494766
0.213927 -0.086561 0.301510
-0.027240 -0.447875 0.250551
0.257668 0.189931 0.855820
0.643361 -0.106400 0.821490
0.189700 -0.443930 0.721618
0.044149 -0.530092 1.077959
-0.298594 0.002447 0.765018
0.222916 -0.275870 0.663905
0.238710 -0.486457 0.751877
-0.391805 -0.500614 0.371811
0.154082 -0.705882 0.508005
0.108898 -0.616114 0.881345
-0.109101 -0.179125 0.964157
-0.070917 -0.566256 0.341331
0.516676 -0.247546 0.993572
-0.350212 -0.645978 0.635213
0.386145 -0.623264 0.632490
-0.272416 -0.173861 1.001543
0.129397 -0.551665 1.069605
0.101198 -0.773383 0.791038
-0.535045 -0.449139 0.603986
-0.112877 -0.561632 0.736945
-0.006408 -0.335747 0.988084
0.228643 -0.458197 1.032609
0.559632 -0.065787 0.898292
-0.196921 -0.352193 0.172994
-0.567906 -0.207469 0.373566
0.063739 -0.635924 0.709975
0.556686 -0.401430 0.658553
0.126444 0.039694 0.747454
0.363508 -0.249434 0.490556
-0.148420 -0.164852 0.524375
0.500192 -0.414215 0.887154
-0.329799 -0.200667 0.164693
0.059831 -0.428921 1.135255
0.314176 0.000959 0.342926
-0.474363 0.038984 0.635036
0.380869 -0.467435 0.916476
0.009516 -0.130301 0.651743
0.136943 -0.512794 0.286808
-0.179760 -0.751615 0.489980
-0.058410 -0.692350 0.927172
0.536354 -0.444014 0.685846
0.418051 -0.129901 0.921135
0.313432 -0.632276 0.618787
-0.022253 -0.594364 0.923500
0.219299 -0.631252 0.717503
0.032200 -0.376275 0.164590
0.410820 0.100225 0.716578
-0.070544 -0.459636 1.228758
-0.013146 -0.615523 0.630728
0.411055 -0.473267 1.026741
-0.175033 -0.726017 0.748330
0.102039 -0.588282 0.411883
0.107396 -0.627919 0.915507
0.332947 -0.172534 0.684816
-0.287183 -0.321901 0.867203
0.199606 -0.574573 0.679516
-0.000229 -0.454711 0.963286
-0.331961 -0.138893 0.771524
-0.435199 -0.395959 0.490522
0.277140 -0.406702 0.849091
-0.310047 -0.206694 0.850265
0.036795 -0.286137 0.313733
-0.211884 -0.702541 0.761122
-0.265854 -0.462684 0.923635
0.246367 -0.496677 0.329623
-0.188553 -0.123460 0.372169
0.090085 -0.318312 0.898173
-0.369418 -0.641138 0.738751
0.307888 -0.429959 0.927462
-0.359373 -0.187071 0.527377
0.200394 0.080923 0.200044
0.461412 -0.143561 0.477527
-0.067644 -0.464028 0.925759
0.230299 -0.454569 1.128446
0.006409 -0.169468 0.063564
-0.399837 -0.370619 0.633530
0.304488 -0.519749 0.669983
0.370790 -0.503430 0.814938
-0.315781 -0.106815 0.560047
-0.034422 -0.437234 0.166489
0.096323 -0.283901 1.058486
-0.039705 0.230562 1.011497
0.252123 -0.590274 0.700980
-0.293918 0.028681 0.217260
0.330550 -0.263351 0.859803
0.342857 -0.424481 0.581232
0.070300 -0.055568 0.904001
-0.393059 -0.529010 0.911212
0.565642 -0.336197 0.744099
-0.343351 -0.127932 0.635991
-0.372480 -0.149498 1.131534
-0.310726 -0.206705 0.682792
0.150845 -0.727454 0.693679
-0.523640 -0.242586 0.327138
-0.101384 -0.233462 1.254371
-0.130106 -0.633328 0.889842
-0.298293 -0.452399 0.998753
-0.363031 -0.584117 0.808454
0.389647 -0.460740 0.661841
0.481442 -0.210271 0.623663
-0.002105 -0.497618 0.359530
-0.190334 -0.551041 1.071540
0.367872 -0.089449 0.648013
0.013766 -0.074153 0.695714
0.031707 -0.756139 0.898715
0.199990 -0.523002 0.589574
0.176619 -0.704321 0.645709
0.075405 -0.225847 0.554346
0.356411 -0.426995 0.904411
0.219141 -0.744998 0.703896
-0.192685 -0.179204 0.891314
-0.177223 -0.686877 0.457044
0.088462 -0.468843 0.942964
-0.215036 -0.014108 0.993550
-0.427436 -0.249151 1.103976
0.067968 -0.685450 0.863640
0.036500 0.118027 0.249235
0.316150 -0.496683 0.736134
0.466442 -0.426934 0.600893
0.353479 -0.356259 0.551400
0.240179 -0.556406 1.043030
-0.166501 0.108519 0.404198
-0.332709 -0.418172 1.062189
-0.217832 -0.622809 0.932025
-0.263832 0.236675 0.442739
-0.155111 -0.188748 1.120951
0.415301 -0.274503 0.664738
0.298094 0.251871 0.390637
0.070372 -0.650166 0.440623
-0.595335 -0.032243 0.849797
-0.332884 -0.097902 0.320256
0.254658 -0.214326 1.024853
-0.432681 -0.113774 1.032130
-0.303335 -0.106358 0.545900
0.429059 -0.384438 0.839398
0.016559 -0.774888 0.768948
0.159636 -0.480725 0.602732
-0.079685 -0.493914 0.901805
-0.243164 -0.480193 0.465582
-0.112023 -0.615670 0.366618
0.520179 -0.537914 0.728900
0.310363 -0.548725 0.653091
-0.189222 0.004344 1.176845
0.012639 -0.357045 0.491287
0.005381 -0.352035 1.234980
0.335753 -0.506146 1.088741
0.038790 -0.491963 1.146143
0.273460 -0.494217 1.043732
0.286636 -0.677897 0.802295
-0.098349 0.077676 0.962616
0.363544 -0.377698 0.909379
0.364458 -0.441359 0.773081
-0.049831 -0.132895 1.000142
-0.019833 0.077127 1.003925
-0.187343 -0.292758 1.068983
0.170423 -0.041797 0.569561
-0.067645 0.289297 0.928192
0.179250 -0.669896 0.903369
-0.295322 0.155444 0.649127
-0.297304 -0.331503 0.647905
-0.135421 -0.697616 0.384641
-0.354331 -0.326835 0.925479
0.061704 -0.141980 0.600346
-0.418851 -0.052324 0.237749
0.091853 -0.741324 0.624388
0.166232 -0.190564 1.219729
-0.643277 -0.078990 0.735407
-0.063661 -0.366587 0.389334
0.180520 0.051871 0.699523
0.191962 -0.051678 0.364717
-0.118246 -0.471176 0.800337
0.225818 -0.292852 0.564015
0.099987 -0.697994 0.410766
-0.225371 -0.627835 0.335605
-0.100768 -0.619340 0.833125
0.521441 -0.011282 1.021998
-0.360992 -0.086352 0.796157
0.286192 0.070356 0.466724
-0.055749 -0.273032 0.495455
0.297587 -0.058926 0.447318
-0.407428 -0.474910 0.320621
-0.124490 -0.499042 0.388267
0.366449 -0.124693 0.906710
0.020550 -0.255722 0.963584
-0.303161 0.152489 1.065732
0.377119 -0.392369 0.794511
0.127804 -0.417484 0.452945
-0.424586 -0.548883 0.546017
0.104084 -0.357258 0.925231
0.070294 0.032435 1.241253
-0.304739 -0.614048 0.342739
-0.168664 -0.363133 0.530736
0.535040 -0.286492 0.650111
-0.426994 -0.368293 0.791928
-0.006967 -0.808792 0.752159
-0.054568 -0.565341 0.840740
-0.322927 -0.598197 0.597440
-0.054671 -0.346698 1.263921
-0.460209 -0.456018 0.453345
-0.186414 -0.468577 0.194871
0.177108 -0.072889 0.418655
0.100571 -0.593523 0.261977
0.563620 -0.256609 0.490476
0.323161 -0.210519 0.839210
0.127245 -0.348014 0.982262
0.251403 -0.300842 0.869470
-0.177834 -0.152391 1.045945
-0.620492 -0.351197 0.800063
0.309602 -0.195931 0.471933
0.343562 -0.657364 0.621997
-0.017993 -0.341865 1.033059
-0.270117 -0.056150 0.673631
-0.258952 -0.664376 0.606577
0.078572 -0.110381 0.442399
0.219550 -0.592446 0.856024
0.473316 -0.250136 0.627331
-0.165960 -0.276979 0.967183
-0.367391 -0.557240 0.790640
0.039732 0.144613 0.486655
0.168383 -0.458588 0.707822
-0.342197 -0.482068 0.567469
0.065350 -0.391654 1.296528
-0.165116 -0.582696 0.983735
0.238637 -0.226107 0.884953
0.041867 -0.017665 0.729395
-0.059021 -0.290409 0.060512
0.326270 -0.121495 0.695331
0.175814 -0.123794 0.607455
-0.032998 -0.558917 0.953927
0.077615 -0.100962 0.409236
0.215163 -0.051022 0.962862
0.083656 -0.733074 0.753518
0.011554 -0.611330 0.788206
-0.111227 -0.271935 0.189453
0.539242 -0.271021 0.909467
-0.054144 -0.638827 0.824462
0.260355 -0.586498 1.066359
0.319324 -0.286375 0.479780
-0.091135 -0.441027 1.241656
0.049587 0.169090 0.821491
-0.559793 -0.008020 0.692265
-0.036226 -0.060724 0.928255
-0.361849 -0.112783 1.218704
-0.156353 0.027720 0.640099
0.069801 -0.225814 0.406932
-0.417439 -0.110544 0.276824
-0.008907 0.000629 0.966345
0.194967 -0.679710 0.641094
0.126123 -0.675827 0.543249
0.313729 -0.394137 1.099083
0.540121 -0.096453 0.873129
0.394589 -0.150241 0.510583
0.115845 -0.415148 0.331127
-0.264559 -0.492408 0.771556
-0.165029 -0.675531 0.619738
-0.435674 0.032029 0.277422
0.051130 -0.368585 0.351474
-0.505402 -0.260161 0.983003
-0.402015 -0.606633 0.579512
-0.227910 -0.731981 0.807090
-0.277465 -0.255819 1.082727
-0.344668 -0.320532 1.059613
-0.180489 -0.268440 0.831840
0.350877 -0.365005 0.946210
-0.060203 -0.743506 0.479386
-0.080483 -0.311023 0.956160
0.398123 -0.506752 0.570088
0.117135 -0.168577 1.191216
-0.019904 -0.297717 1.081475
-0.022098 -0.481646 0.160292
-0.216165 -0.336218 0.299236
-0.005790 -0.530394 0.406283
-0.214710 -0.405624 0.376823
0.155197 -0.320052 0.982895
0.036406 -0.157863 0.997103
0.310203 -0.407426 0.870125
0.002885 -0.390305 1.053628
-0.401281 -0.263490 0.681814
-0.016260 -0.532763 0.226246
-0.167809 -0.644633 0.510283
-0.469999 -0.283475 0.892409
0.354285 0.006092 0.946548
0.059872 -0.321338 1.152820
0.108532 -0.141179 0.389171
0.172320 -0.414162 0.569050
0.512781 -0.458167 0.538981
-0.107252 0.222035 1.056783
-0.352814 -0.022507 0.701368
0.001881 -0.390114 1.238103
0.237411 -0.599081 0.762660
0.373873 0.124990 0.536704
0.467267 -0.572329 0.576626
0.216076 -0.450816 1.121014
0.437744 -0.501263 0.720804
0.155687 -0.418675 1.028396
0.341411 -0.586686 0.855229
0.152171 0.025805 0.125237
-0.561644 -0.325104 0.606198
-0.230826 -0.356519 0.960584
-0.190182 0.117517 0.900337
-0.051834 -0.490208 0.498014
0.294269 -0.040468 1.154206
-0.194151 -0.459286 0.310855
-0.287066 -0.016866 0.708723
0.359329 -0.308042 0.692327
-0.238868 0.191016 0.493332
-0.558210 -0.363532 0.509633
0.454040 -0.292700 0.644961
0.446730 -0.408770 0.640849
0.040683 0.109197 0.673966
0.216316 -0.527740 0.949315
-0.087597 -0.758295 0.866007
0.401537 -0.563230 0.899712
0.335018 -0.224775 0.586993
0.110844 -0.281713 1.055330
0.316165 -0.553458 0.577135
-0.325598 -0.351839 0.215629
0.171314 -0.086304 0.492837
0.124549 -0.478000 0.608089
0.091554 -0.435663 1.060117
0.203124 -0.430533 1.093965
0.177227 0.136851 0.969962
-0.155949 -0.690904 0.413491
0.327422 -0.626817 0.887405
0.587891 0.013115 0.808834
0.385669 0.126759 0.714303
-0.190579 -0.350396 1.266182
0.007797 -0.105793 0.107240
-0.273392 -0.542328 0.458999
0.364401 -0.641040 0.618278
0.185777 -0.407306 0.921264
-0.098503 -0.659193 0.679724
0.089340 -0.394627 0.596981
0.102390 -0.519775 0.335472
-0.202289 -0.246107 0.244921
0.149392 -0.545361 0.698194
-0.250855 -0.663423 0.639105
-0.438609 -0.463472 0.602993
0.115554 -0.618879 0.651842
-0.015448 -0.683186 0.796390
-0.203066 0.003498 0.627140
0.259343 -0.161183 0.467589
0.207457 -0.626696 0.362200
0.265478 -0.493045 1.002185
-0.072590 0.013823 1.062958
-0.111071 -0.041142 0.896050
0.039175 -0.175312 1.069087
-0.481463 -0.211735 0.825900
0.284271 -0.406105 0.475927
-0.061864 0.156933 0.894924
0.319504 -0.396043 0.396799
0.341914 -0.154198 0.834746
-0.416110 -0.365037 0.854583
-0.049347 -0.261369 0.475951
0.210548 -0.559572 0.302582
-0.488623 -0.101945 0.351959
-0.279280 -0.501318 0.747889
0.316087 -0.530039 1.054219
-0.235184 -0.345481 1.257506
0.397624 -0.204654 0.875739
0.207056 -0.174577 0.478299
0.303929 -0.309492 1.165211
-0.134066 -0.515295 0.368032
0.252894 -0.717096 0.769288
-0.163128 -0.224743 0.962317
-0.388773 -0.312246 0.881992
-0.202398 -0.620039 0.663660
0.267029 -0.141521 0.751472
0.416865 -0.381439 0.688113
-0.410579 -0.253975 0.780844
0.432335 -0.414997 0.571061
-0.052331 -0.709986 0.884665
-0.022128 -0.749075 0.515323
-0.450150 -0.034415 0.322413
-0.507897 -0.404774 0.527294
-0.592688 -0.177331 0.602623
0.321789 0.027946 0.977234
0.149950 -0.527574 0.218223
0.259412 -0.445934 1.042162
0.159964 -0.355653 0.364731
-0.184860 -0.664555 0.452320
-0.321705 -0.663910 0.548105
-0.014357 -0.570831 0.280370
-0.555206 -0.369626 0.890318
-0.264801 -0.596881 0.588553
-0.022559 -0.688005 0.543413
-0.274127 -0.562346 0.526546
-0.165502 -0.442078 0.398939
0.023841 -0.233988 1.227936
0.480457 -0.437283 1.038033
0.112439 -0.677692 0.482537
-0.043364 -0.642354 0.710720
-0.242651 -0.384096 1.197043
-0.248568 -0.267653 0.202624
0.080047 -0.796243 0.661121
0.112932 -0.542038 1.046190
-0.274501 -0.395360 1.041260
0.319475 -0.287863 0.990937
-0.300926 -0.557278 0.598697
0.138556 -0.606887 0.960702
0.084972 -0.190114 0.136616
0.167106 0.185851 0.833111
0.131790 -0.604548 0.802532
-0.000062 -0.757987 0.924795
-0.236800 -0.438824 0.744521
0.380356 -0.352435 1.181478
-0.190734 -0.646762 0.849460
0.014855 -0.693732 0.748868
0.617441 -0.284957 0.697268
0.020777 0.086905 1.135561
0.182436 -0.137997 0.416586
-0.328258 -0.474574 0.759859
-0.356241 -0.347277 1.070018
-0.006417 -0.403595 0.151100
-0.184532 -0.111314 0.490689
0.104753 -0.315253 0.451734
-0.391008 -0.374801 0.299473
-0.189799 -0.059080 0.196733
0.126480 -0.714309 0.464251
-0.019465 -0.337679 1.304492
0.263333 0.046070 1.147708
-0.276251 -0.174771 0.969025
-0.169813 -0.497806 0.995475
-0.006671 -0.658498 0.472872
0.042449 -0.204406 0.644587
-0.489785 -0.369123 0.925857
0.285816 -0.003120 0.910485
0.234440 0.210817 0.508648
0.452561 0.169680 0.751870
0.378753 -0.190347 0.801213
0.225716 -0.012917 0.684138
-0.044040 -0.698362 0.554348
0.017362 -0.390414 1.061570
0.456445 -0.111114 0.992858
-0.292535 -0.351061 0.973373
0.130501 -0.090423 0.308865
0.149811 -0.677721 0.419450
0.252720 -0.621211 0.823491
0.367036 -0.248471 0.876532
0.325767 -0.201934 0.252452
0.395911 -0.389012 0.402350
-0.009572 0.079448 0.227708
-0.139708 -0.687914 0.794879
-0.248555 -0.603663 0.944959
-0.213191 -0.405616 0.215685
0.389177 -0.355577 1.079498
-0.544196 -0.105230 0.745380
0.090544 -0.336549 0.307673
0.310413 -0.340792 1.070662
-0.302045 -0.131648 1.008712
0.094188 -0.399004 0.480176
0.017952 -0.777013 0.643241
0.389716 -0.406066 0.601569
0.321095 -0.195386 1.168197
-0.114357 -0.728965 0.852350
-0.103819 -0.717840 0.536330
0.463315 -0.004841 1.118911
-0.114952 -0.620409 0.792125
0.437527 -0.172461 0.767156
0.302017 -0.307457 0.284405
0.346628 -0.211387 0.887203
0.216024 -0.542455 0.421997
0.223635 -0.448496 0.222022
-0.199376 -0.604083 0.997875
-0.423811 -0.501112 0.537991
-0.389074 -0.626958 0.682763
-0.156215 -0.247794 0.239154
0.597938 -0.272676 0.655007
0.123951 -0.770676 0.706433
-0.017876 0.016199 0.924988
0.149584 -0.730636 0.846883
0.235249 -0.016639 0.725467
0.217340 -0.195873 1.316391
-0.124957 -0.504364 0.637811
-0.196544 -0.768009 0.621441
-0.356823 -0.595505 0.666252
-0.489950 -0.348919 0.635242
-0.304715 -0.260071 1.228792
0.276553 0.088613 0.679387
-0.287322 -0.547625 0.464885
0.252204 -0.507823 0.988548
0.299447 -0.201775 0.915530
-0.343005 -0.470003 0.455073
0.095223 -0.764186 0.604514
0.315724 -0.368473 0.925205
0.082909 0.102611 0.589056
0.057587 -0.714699 0.419258
-0.219009 -0.246835 1.062221
-0.304843 -0.385340 0.606454
-0.163232 -0.316469 0.863043
0.410922 0.182793 0.841043
0.394335 -0.318462 0.722537
-0.283840 -0.093773 0.497874
-0.238272 -0.405877 1.116375
0.204073 -0.651427 0.980021
-0.475148 -0.436084 0.463222
-0.424416 -0.510806 0.808341
-0.080272 -0.289581 1.275961
0.134930 -0.400798 0.457592
0.280513 -0.217046 0.693388
0.172896 -0.762524 0.724191
-0.206725 -0.294525 0.686945
0.220686 -0.631811 0.537860
0.318767 -0.136348 0.128764
0.290955 0.113952 0.901519
0.316572 0.056599 0.350482
0.120742 -0.224411 0.564011
0.108938 -0.362191 0.455162
0.340799 -0.530597 0.554466
0.121546 -0.069560 1.306180
0.517003 -0.180385 1.025762
0.426453 -0.083222 0.344450
-0.192042 -0.346309 1.079277
-0.025795 -0.517266 0.297651
-0.230272 0.087324 0.507761
0.043246 -0.425807 0.807402
0.335660 -0.353310 0.954080
0.456947 -0.371033 1.030852
-0.165004 -0.316141 1.226606
-0.531714 -0.470585 0.860976
0.258083 -0.005586 0.712716
0.475586 -0.168309 0.568556
0.221379 -0.569217 0.637001
0.236177 0.001643 0.757688
0.399612 -0.602483 0.776456
-0.592421 -0.118477 0.433584
-0.262748 -0.432408 1.039991
-0.228971 -0.636596 0.866134
-0.038893 -0.563554 0.464651
-0.403122 -0.033725 1.032489
0.095072 0.205744 0.728826
0.028196 -0.250669 0.752795
0.216392 -0.719469 0.794220
0.181380 -0.747824 0.873259
0.062578 0.038083 1.107217
0.307833 -0.469278 0.591109
0.241324 -0.048592 0.685546
-0.191520 0.088224 0.923569
-0.554302 -0.196701 0.436794
-0.038750 -0.028044 1.023654
-0.111400 -0.521225 1.172457
0.210734 -0.300683 0.358569
-0.107112 -0.513978 0.286638
-0.024754 -0.560078 0.589916
-0.189280 -0.378113 0.195998
-0.075544 -0.386487 1.118677
-0.158020 -0.100488 0.696719
0.246632 -0.535937 1.151390
-0.318655 -0.284798 0.334372
0.060314 -0.757328 0.631391
-0.253082 -0.534892 0.867174
-0.316031 -0.552283 0.338705
0.094632 -0.724621 0.646320
0.045361 -0.365465 0.369385
-0.217202 -0.342617 1.257605
0.310781 -0.599841 0.949363
0.430947 -0.186679 0.610614
-0.358200 -0.153604 0.660726
-0.615200 -0.021314 0.646642
-0.259399 -0.598791 0.852807
0.240381 -0.063746 0.118061
-0.569758 -0.109450 0.566725
0.497746 -0.123196 0.889201
-0.153198 -0.034192 0.923448
-0.370293 -0.147713 0.222496
0.090156 -0.561693 0.190272
0.056827 0.119710 0.900974
0.239779 -0.150272 0.830113
-0.164752 -0.462029 0.740420
0.272011 -0.527234 0.614811
-0.492017 -0.199255 0.711429
-0.385561 -0.384761 0.578357
0.424898 -0.438440 1.023368
0.099259 -0.731159 0.614780
0.218258 -0.068890 0.479743
0.254936 -0.507072 1.031392
0.412210 -0.034077 1.103630
-0.019382 -0.546899 1.072555
0.107839 -0.666715 0.520006
0.017326 0.215757 0.769766
0.420199 -0.147470 0.939160
0.115700 -0.606958 0.413639
0.131101 -0.713285 0.855307
-0.099566 -0.287611 1.065701
0.162469 -0.437143 0.946200
0.339879 -0.436686 1.126636
-0.024938 -0.449390 0.495673
0.068949 -0.601126 0.649742
0.317322 -0.429256 0.475781
-0.326681 -0.488009 0.708098
0.114835 0.150740 0.376944
-0.277671 0.043344 0.222286
0.312119 -0.272786 1.193942
-0.342258 -0.274071 0.888802
-0.283276 -0.394690 0.934470
0.418955 0.174789 0.937408
0.235489 0.051047 0.453657
-0.135632 -0.626758 0.903692
0.542486 -0.137480 1.030597
-0.004620 -0.598034 0.811531
0.272737 -0.378202 0.166856
0.216507 -0.317778 1.212562
0.262648 -0.014624 0.657287
-0.033712 -0.314034 1.025793
0.224656 -0.577675 0.642500
0.116721 -0.398656 1.067839
-0.033526 -0.215045 0.514657
0.215025 -0.298565 0.174131
0.153856 0.116535 0.953705
0.225738 -0.746359 0.723453
0.107570 -0.642795 0.299364
0.323422 -0.295745 0.747107
-0.192002 -0.273297 0.140713
-0.073165 -0.470333 1.189307
-0.024598 -0.666291 1.092598
0.301527 -0.347278 0.672286
-0.267872 -0.585584 0.555992
-0.269048 -0.523829 0.804734
-0.218632 -0.243961 0.584737
-0.316177 -0.118494 0.689537
-0.101052 -0.153339 1.013051
0.294593 -0.440723 0.450679
-0.118453 -0.335051 0.122246
-0.468967 -0.196062 0.261953
0.201772 -0.598763 0.744172
-0.026170 -0.555699 0.894554
0.059173 -0.730887 0.812964
0.093436 -0.716477 0.777406
0.063387 -0.648396 0.648307
-0.463695 -0.356296 0.707944
0.244889 0.007963 0.439894
0.358462 -0.255304 0.953799
0.319338 -0.459299 0.759573
0.266917 -0.573251 0.473661
-0.591378 -0.272036 0.849912
0.247788 -0.407685 0.417104
0.139920 0.085508 0.898744
-0.556414 -0.013314 0.386769
0.517184 -0.320009 0.546576
0.371517 0.150726 0.904341
0.181577 -0.519652 1.167048
0.151768 -0.226166 0.725043
-0.453300 -0.503827 0.630939
0.154225 -0.212919 0.631541
0.210635 -0.160974 1.229781
0.383757 -0.014314 0.234191
0.306980 -0.609824 0.632818
0.357661 -0.373950 0.502765
0.260675 -0.063978 0.731197
-0.226916 0.009681 0.823274
0.361318 -0.475374 0.820014
0.021156 -0.596994 0.387609
0.319653 -0.201191 0.573000
0.295391 -0.606848 0.713869
-0.129644 -0.623412 0.912431
-0.436532 -0.388693 0.610247
-0.136070 0.123348 0.610433
-0.132490 -0.048861 0.903328
0.212951 -0.635703 0.910190
-0.293880 -0.115860 0.802844
-0.110707 -0.594521 0.484427
0.308986 0.259065 0.819314
0.147003 -0.527069 0.950232
-0.217994 -0.409195 0.988841
0.133831 -0.067231 1.199925
-0.021733 -0.677455 0.669458
-0.067583 -0.562466 0.947276
-0.320722 -0.131169 1.021394
-0.393961 -0.426824 1.024310
0.250360 -0.132687 0.582622
0.151571 -0.592604 0.714329
0.068936 -0.212477 0.073778
-0.176972 -0.213826 1.121146
-0.363442 -0.409379 0.893223
-0.003345 -0.151105 1.004572
-0.124364 -0.087912 0.976953
0.309966 -0.085557 0.736651
-0.290862 -0.666570 0.667914
0.241143 -0.277969 0.497006
0.173920 -0.433314 0.701293
-0.028304 -0.356773 1.299442
0.019109 -0.485013 1.007406
-0.335690 -0.406082 0.658796
-0.114716 -0.663839 0.982413
-0.394414 -0.389102 0.404685
-0.417939 -0.252217 0.348595
-0.367024 -0.455443 0.823039
0.281164 -0.432114 1.135889
0.422521 -0.508234 0.477232
-0.446282 -0.170980 0.748622
0.037154 -0.740829 0.786963
0.525228 -0.164420 0.636560
-0.270143 -0.197953 0.962858
-0.011881 -0.459251 0.798664
0.117925 -0.132454 1.080514
0.260198 -0.197623 1.021917
0.168112 -0.263086 0.258611
-0.226923 -0.317763 0.343814
0.560646 0.038946 0.800105
0.201700 -0.069289 1.034061
-0.220486 -0.050913 0.804332
-0.237734 -0.310944 0.596297
-0.178987 -0.722598 0.447867
-0.215975 -0.548709 0.399079
-0.124019 -0.729584 0.477977
0.515285 -0.210364 0.943917
-0.193435 0.121457 1.031900
-0.006203 -0.729586 0.454615
-0.047856 -0.547550 1.013722
0.260861 -0.536334 0.957238
0.061298 -0.671557 0.751292
0.255620 -0.382576 0.448307
-0.214733 0.045815 0.818205
-0.441995 -0.220154 0.399582
-0.532016 0.001638 0.761292
0.059915 0.064014 0.708376
0.351813 -0.044775 0.703408
-0.312836 0.134591 0.338479
0.052081 -0.682371 0.369782
-0.083671 -0.391089 0.969225
-0.250984 0.001990 0.225636
0.437048 -0.276252 0.665181
0.310757 -0.279369 0.943016
-0.427539 -0.431129 0.478328
-0.218331 0.096692 0.361141
0.230205 -0.595263 0.524739
-0.212091 -0.207007 0.179597
-0.262815 -0.501593 1.095682
-0.442585 -0.033355 0.502269
0.498692 -0.420093 0.744965
-0.534111 -0.210690 0.725579
0.261922 -0.237530 0.487596
-0.010550 0.029950 0.881758
0.488347 -0.341212 0.724876
0.487351 -0.488526 0.530702
-0.072837 -0.134593 0.545925
-0.008995 -0.525964 0.944827
0.222121 -0.299897 0.362963
-0.071721 -0.540175 1.177016
-0.038406 -0.478617 0.255995
-0.275925 0.001177 1.175700
0.456827 -0.376345 0.942138
-0.182687 -0.430742 0.711062
-0.326311 -0.258037 0.478209
-0.019384 -0.154209 0.071825
-0.124771 -0.396399 0.799303
0.220166 -0.608153 0.848713
-0.311132 -0.125549 0.143287
-0.195072 -0.668618 0.484269
-0.078153 -0.777165 0.848339
-0.200513 -0.613848 0.504028
-0.253537 -0.448809 0.911224
-0.165433 0.163011 0.699740
-0.079680 -0.549213 0.496174
-0.055841 -0.667143 0.854308
0.016112 0.224596 0.408106
-0.254280 -0.606285 0.951688
0.224581 -0.103647 0.975986
0.357969 -0.624917 0.638038
0.196938 0.186453 0.868388
0.221281 -0.546038 1.087242
0.368682 -0.516579 0.682377
0.167332 -0.611038 0.376312
0.283081 -0.095081 0.796505
-0.098200 -0.090288 0.942091
-0.065814 -0.566270 0.820187
0.059351 -0.265934 1.306533
0.076566 0.083762 0.736187
-0.234665 0.020810 0.791659
0.328729 -0.254682 0.224962
-0.006644 0.068335 1.116244
-0.223493 0.077490 0.688490
-0.462339 -0.006053 0.325473
-0.459978 -0.506381 0.844029
0.299917 -0.347235 0.574907
-0.318382 0.028987 0.728139
-0.297196 0.226358 0.699435
0.072036 -0.352999 0.244898
0.162306 -0.189768 0.436463
-0.385273 0.039412 0.451723
-0.319241 -0.551302 0.730350
0.372799 -0.244628 0.745854
-0.059639 -0.499412 0.662355
-0.062370 0.031559 0.786581
-0.071446 -0.573297 0.816895
-0.058763 -0.359979 1.249570
-0.559162 0.054133 0.612381
-0.200481 -0.353372 0.316930
0.439282 0.076991 0.545270
-0.330239 -0.280876 1.015746
0.319145 -0.042052 0.694808
0.130217 0.047182 0.533933
0.119421 0.136957 0.782580
-0.201002 -0.292634 0.518198
-0.251931 -0.604101 0.401202
-0.124810 -0.647212 0.585753
-0.624831 -0.032194 0.671470
-0.427940 -0.166983 0.580086
0.415719 0.108978 0.579941
0.386362 -0.478771 0.520413
-0.044222 -0.601389 0.898461
0.283924 -0.582734 0.935744
-0.053583 -0.043516 1.002323
0.338702 -0.335822 1.028381
0.095656 0.011253 1.049950
-0.434678 -0.491125 0.960723
0.232891 -0.011247 0.785160
0.249608 -0.455310 1.201220
0.014637 -0.720077 0.458789
0.178520 -0.162187 0.557351
0.012014 -0.079386 1.159902
-0.065189 -0.651423 0.845428
-0.162613 -0.255056 1.023602
0.298731 -0.125273 0.452755
-0.234684 -0.214542 1.270347
0.170117 -0.569759 1.013952
-0.118360 -0.070315 1.174011
0.082600 -0.547643 0.489358
0.301399 -0.175397 0.669515
-0.253658 -0.328889 1.043167
-0.584827 -0.102785 0.736753
-0.071813 -0.780187 0.721186
0.215327 -0.136413 0.925037
0.157077 -0.168857 1.219311
-0.273286 -0.732240 0.749805
0.149724 -0.004238 0.453914
0.234816 0.185291 0.517722
0.184599 -0.038255 1.088442
0.408906 -0.154690 0.634350
-0.199695 -0.286310 0.907832
0.132565 -0.324494 0.455011
-0.215772 -0.338740 0.880364
0.119703 -0.352788 0.764372
0.271375 -0.211129 0.757686
0.249529 -0.203879 0.133439
-0.010555 -0.184773 0.951925
-0.071220 -0.733866 0.432578
0.398156 -0.491799 0.562728
-0.173569 -0.579572 1.076000
-0.039579 -0.081708 0.819274
-0.338621 0.053533 0.206337
-0.063618 -0.274735 0.991066
-0.115628 -0.092302 1.054157
0.152720 -0.112254 0.584557
-0.443163 -0.613801 0.721828
-0.157670 -0.074680 0.328653
0.099341 -0.158387 0.500714
0.456054 -0.492145 0.433061
-0.210713 -0.232341 1.002065
-0.056364 -0.768316 0.672020
-0.481796 -0.439851 0.621289
0.312928 -0.176597 0.894177
-0.061411 -0.330026 0.965179
-0.104291 -0.508500 0.986424
0.035339 -0.759054 0.525923
0.241631 -0.553846 0.967568
0.513213 0.126451 0.634098
-0.295390 0.156626 1.158880
0.127015 -0.778120 0.684993
0.137947 0.078072 0.661369
-0.207002 -0.601042 0.442965
0.035003 -0.131259 0.974427
-0.361067 -0.070224 0.288325
-0.031341 -0.271865 0.232885
0.116079 -0.670031 0.646021
0.208492 -0.604670 1.001047
0.538165 -0.171094 0.386751
-0.012297 -0.353373 0.935618
-0.089394 -0.645811 0.559917
-0.485862 -0.154660 0.256379
0.146749 0.216270 0.466297
0.329678 -0.065977 0.798884
-0.133969 -0.120461 0.978438
0.342416 -0.529601 0.642698
-0.202827 -0.652560 1.051584
0.065892 -0.682224 0.641083
0.364680 0.117455 0.966171
-0.081509 -0.092845 1.093146
0.180091 -0.245568 1.001233
0.347240 -0.475778 0.641572
-0.369282 -0.289013 0.834618
0.089938 0.005013 0.885028
0.427074 0.202625 0.616822
0.149361 -0.039373 0.932880
-0.447818 -0.075529 0.642386
0.398140 -0.439162 0.778988
-0.472267 -0.517892 0.512254
0.168425 0.048786 1.046722
-0.062860 -0.437462 0.172198
0.398037 -0.356497 0.607516
0.221580 -0.251690 0.917095
0.185511 -0.525134 0.666896
-0.335246 -0.254659 0.415906
-0.426544 -0.358289 0.421443
0.361580 -0.333015 0.674387
-0.377775 -0.131928 0.577191
0.139090 -0.731400 0.659822
-0.093929 0.046879 0.784023
-0.143358 -0.466595 0.615162
0.290626 -0.531518 1.096125
-0.083684 -0.743046 0.683290
0.134237 0.268609 0.921939
0.210965 -0.079587 0.546671
-0.478450 0.022111 0.931536
-0.339571 -0.621497 0.906559
-0.193106 -0.577680 0.960678
0.497476 -0.206755 0.493324
-0.206555 -0.586186 0.476968
-0.256987 -0.092968 0.717102
-0.216069 0.114416 0.952837
0.287698 -0.520758 0.598281
-0.384644 0.117887 0.462063
0.094093 -0.717345 0.555594
0.262875 -0.330514 0.478491
0.357846 -0.296239 0.732174
-0.368097 -0.654675 0.843821
0.176611 -0.247640 1.026695
0.308200 -0.512516 0.903411
0.179102 -0.404352 0.395083
0.481591 -0.434227 0.682208
0.042259 -0.359393 0.120828
0.053324 -0.152716 0.947102
0.297155 -0.239469 1.092953
-0.159618 -0.502607 0.838074
0.225995 -0.063377 0.166753
0.311315 -0.600979 0.793864
0.059460 -0.056652 0.915448
0.047645 -0.708329 1.022392
-0.399454 -0.023759 0.592752
-0.138828 -0.358558 0.122173
-0.575949 -0.062696 0.473066
0.154078 -0.683675 1.020363
-0.094942 -0.080836 0.933112
-0.394774 -0.358807 0.211096
0.203671 -0.225076 1.034233
0.164730 -0.559908 1.140714
0.065008 0.062599 1.006505
0.484609 -0.401100 0.675607
0.212556 -0.757089 0.724175
0.000586 -0.603148 1.125446
-0.106809 0.061488 1.294169
0.266420 -0.601387 0.877738
-0.276000 -0.345059 0.973529
0.390782 -0.438984 0.638686
0.475605 -0.322781 0.441009
0.399031 -0.387854 0.704136
-0.334225 -0.001191 0.360674
0.448314 -0.401587 1.080906
-0.346682 -0.350889 0.974750
0.585750 -0.126618 0.802085
0.056195 -0.518859 1.111932
0.097625 -0.580750 1.032887
-0.043827 0.092474 0.992326
0.296171 -0.403703 0.688961
0.447418 -0.248928 0.718070
0.406750 -0.426811 0.612718
-0.356003 0.150366 0.304450
-0.280282 -0.627279 0.829325
0.476848 -0.257716 1.077330
0.003401 -0.406384 0.701862
-0.182933 0.055585 0.335619
0.039093 -0.190332 0.381432
0.040665 -0.484481 0.952515
0.329433 -0.045854 0.894514
-0.294999 0.018270 0.722309
0.323491 -0.032439 1.132009
0.200919 0.141376 0.817822
-0.193417 -0.693151 0.731844
-0.137615 -0.185834 0.229173
0.152852 -0.323442 0.496050
-0.129847 -0.501489 0.551920
0.265309 -0.224289 0.641943
-0.465386 -0.554781 0.559505
0.146166 -0.586964 0.432099
0.114056 -0.450514 0.902908
-0.045772 -0.647149 0.937302
0.219405 -0.025526 0.965570
0.560041 -0.412019 0.653171
0.191011 0.076539 0.419515
0.231612 -0.673945 0.714946
-0.102626 -0.509290 0.834870
-0.081867 -0.500672 0.180319
0.526325 -0.435968 0.924608
0.399943 -0.491996 1.081841
0.480607 -0.051537 0.607716
0.392913 -0.587956 0.860879
0.340863 -0.309728 0.624305
-0.341140 -0.513422 0.952791
-0.454060 -0.232203 0.834787
0.237007 0.129448 0.537277
0.435311 -0.006226 0.866004
-0.000777 0.041153 0.819184
-0.010754 0.117902 0.963267
-0.018991 -0.548885 0.862427
-0.320906 0.073389 0.435004
-0.433417 -0.359691 0.409739
0.298392 -0.182343 0.635123
0.219708 -0.383623 0.479798
0.288438 -0.579361 1.043614
-0.155927 -0.729297 0.575751
0.342478 -0.151635 0.678480
-0.325292 -0.152542 0.762337
-0.230576 -0.021946 0.480333
-0.486738 -0.398280 0.407930
-0.141148 -0.186981 1.176566
-0.403840 0.011803 0.324235
-0.050162 -0.696575 0.779513
-0.138621 -0.472134 0.515394
-0.052777 -0.131060 1.116513
-0.405764 -0.291745 0.296838
-0.084746 -0.220557 0.315435
0.049599 -0.268150 0.966210
-0.380622 -0.388238 0.704563
0.596270 -0.362204 0.853068
0.007468 -0.730472 0.929571
0.035779 -0.188381 1.070441
-0.296407 -0.292829 0.929006
0.349577 -0.540757 0.668021
-0.413947 -0.115362 0.287562
0.065652 -0.241737 0.099116
-0.308308 -0.714373 0.764845
0.140699 -0.748759 0.713863
-0.002978 -0.549004 0.174485
0.142223 -0.195438 1.230924
-0.177765 -0.146288 0.950901
0.322155 -0.134870 0.719887
0.075665 0.188680 0.821265
-0.150450 -0.532754 1.007881
-0.280233 -0.680860 0.521875
-0.189531 -0.208007 0.917433
-0.233791 -0.209151 0.449628
-0.254729 -0.609874 1.079594
-0.312536 -0.487108 0.829856
0.244900 -0.504459 1.033215
-0.071487 -0.218525 0.219921
-0.105853 -0.456044 1.165143
0.052145 -0.530734 1.153090
0.376502 -0.415550 0.691545
0.317225 -0.277724 0.959876
0.474161 -0.136356 0.677355
0.406202 -0.611095 0.602302
-0.151385 -0.728251 0.868085
0.124070 -0.191053 0.687540
-0.461843 -0.479067 0.868232
0.345489 0.072529 1.097142
-0.089398 -0.676750 0.534626
-0.526837 -0.256330 0.486657
0.069991 -0.630196 0.766501
-0.133147 -0.194377 0.889655
-0.026000 -0.506379 0.177806
-0.061063 -0.225357 1.129983
-0.404734 -0.132823 0.432552
-0.525789 -0.116209 0.332699
-0.067418 -0.588302 0.894481
-0.130325 -0.742347 0.865989
0.207215 -0.488166 1.102859
0.299221 -0.249328 0.560627
-0.210428 -0.063826 0.753696
0.484614 -0.294574 1.000393
0.439480 0.112550 0.703590
0.385694 -0.239576 0.883355
0.151077 -0.118914 0.375210
-0.151862 -0.736096 0.946912
0.051322 0.082324 0.918633
-0.089654 -0.397054 1.144083
0.121953 -0.241876 0.112637
0.227391 -0.443808 0.471419
-0.351234 -0.129350 0.999918
0.150792 -0.119340 1.002092
-0.111903 -0.556919 1.156413
0.496516 -0.465183 0.651530
0.350510 -0.558910 0.591681
0.122031 -0.576183 0.701963
-0.052706 -0.340474 0.294855
-0.272606 -0.489521 0.872217
0.472455 -0.189956 1.041027
-0.342712 0.172586 0.905593
0.248167 -0.242162 0.943712
0.159473 -0.766900 0.582158
-0.199670 -0.559028 0.674041
0.199967 -0.405413 0.494855
0.391616 -0.378555 0.797947
-0.241576 -0.197674 0.402734
-0.294371 0.237200 0.577322
0.271092 -0.389006 0.416177
-0.420079 -0.323110 0.671463
0.106779 0.035048 0.903700
-0.315504 -0.112827 1.049712
-0.144519 -0.583037 0.718323
0.111708 -0.632660 0.452369
-0.342309 -0.117119 0.653079
0.498731 -0.080306 0.564716
-0.226861 -0.453778 0.760364
0.182474 -0.179353 0.995655
0.141310 -0.494245 0.294494
0.163699 -0.026221 0.789607
-0.204963 -0.109789 1.267797
0.043408 -0.390435 0.555632
0.406752 -0.445628 0.805881
0.287770 -0.692757 0.602951
0.255792 -0.455275 0.322808
-0.393982 -0.318324 1.149154
0.189186 -0.448490 0.230680
0.452515 -0.466974 0.667778
0.000500 -0.217679 1.320138
-0.279881 0.024568 0.691588
0.105790 -0.409747 0.309409
-0.175501 -0.197294 0.105809
-0.103000 -0.663694 0.938354
0.513584 -0.528485 0.669634
-0.178533 -0.734615 0.567748
0.413500 -0.066336 0.255257
-0.068890 -0.723019 0.554837
0.009789 -0.406072 0.561265
-0.211501 0.141586 0.629700
0.140429 -0.415036 0.329718
0.218642 -0.634383 0.498211
0.156325 -0.467391 0.816807
-0.146522 -0.258191 1.060132
0.071368 -0.076176 0.569248
0.063598 -0.724490 0.788563
0.026429 -0.289531 0.304025
0.261368 -0.090399 1.024183
-0.053834 -0.742779 0.540369
0.204369 -0.258010 0.733730
0.110316 -0.509576 0.739312
0.123706 -0.300719 0.977104
0.386407 -0.609039 0.706442
0.084067 -0.149088 1.105775
-0.169877 -0.637227 0.866167
-0.522232 -0.369065 0.580513
0.252626 -0.177944 1.288551
0.164036 -0.019249 1.272575
-0.105449 -0.708839 0.489348
-0.068920 -0.757759 0.924885
0.362087 -0.606944 0.537936
-0.202203 -0.448804 1.097415
-0.152983 -0.417378 1.207267
-0.134361 -0.071777 0.803242
-0.123619 -0.786942 0.701683
0.054592 -0.144592 0.518673
0.008692 -0.572105 0.397292
0.206156 -0.540660 0.735435
-0.369554 0.045254 0.467246
-0.262045 -0.649025 0.897112
-0.492725 -0.078385 0.676624
0.124603 -0.511219 1.028477
0.194384 -0.589418 0.715150
-0.262745 -0.142538 0.983779
0.293341 -0.180122 1.276226
0.196474 0.078263 0.689684
0.237427 -0.137540 1.026194
-0.311219 -0.605601 0.827864
-0.252888 0.150615 0.557578
-0.188336 -0.620000 0.424383
-0.376710 -0.366260 0.807414
0.105680 -0.737593 0.698143
-0.368130 -0.164872 0.917892
0.245025 -0.320646 0.746843
0.174818 0.018136 1.262104
-0.333773 -0.009427 0.744586
-0.134983 -0.058360 1.002207
0.139206 -0.736980 0.629964
-0.253804 0.009405 0.837723
-0.211351 -0.456110 0.874822
-0.130930 -0.573172 0.745538
0.359741 -0.433313 1.125911
-0.547054 -0.332489 0.393456
-0.333753 -0.148667 0.131663
-0.044474 -0.784148 0.568038
0.362728 -0.645984 0.858734
-0.246674 -0.165290 1.056162
-0.184871 -0.651923 0.569551
0.489074 -0.209199 0.857339
-0.373068 -0.512283 0.937791
-0.144612 -0.612821 1.091831
0.522365 -0.266052 0.715609
0.372450 -0.559648 0.603453
-0.204750 0.268252 0.773839
-0.239352 -0.374652 0.996589
-0.286503 -0.490343 0.640872
0.136164 -0.166455 0.635460
-0.472343 -0.443978 0.443802
-0.313805 -0.587502 0.400879
-0.163974 -0.351414 0.188629
-0.257812 -0.622041 0.444005
0.152472 -0.245378 1.063144
-0.056790 -0.415051 1.153015
0.285310 -0.417443 1.102938
-0.471704 -0.470517 0.516771
0.374669 -0.273623 0.747888
0.314041 -0.390096 0.225299
0.470554 -0.343174 0.745275
-0.099603 -0.160056 0.942314
-0.368900 -0.588538 0.999366
0.511095 -0.054657 0.396790
0.123146 -0.479004 1.160811
-0.028091 0.123475 0.809671
0.467991 -0.059634 0.865425
0.254136 -0.444616 0.242095
0.309715 -0.470442 0.478654
-0.031785 -0.406608 0.884917
-0.234520 0.003199 0.411782
-0.144393 -0.639060 0.340715
-0.058133 -0.092580 1.012895
-0.400274 -0.465022 0.857016
-0.534684 -0.350968 0.562993
-0.309008 -0.079680 0.581531
-0.066744 -0.667880 0.993475
0.216594 -0.267555 0.673546
0.106827 0.010982 1.140994
-0.062731 -0.411551 0.782271
0.372268 -0.409290 0.862946
-0.240868 -0.177709 0.237251
-0.209112 -0.108585 0.180654
0.237965 0.152120 0.575328
0.089105 -0.696134 0.862084
0.425193 -0.436132 0.595851
-0.305260 -0.408222 0.263241
0.045481 -0.189040 0.405765
0.153050 -0.741556 0.874854
0.318208 -0.195109 0.717136
0.075899 -0.208938 0.289004
-0.136878 -0.517072 1.007927
-0.150165 -0.348499 0.770644
-0.076189 -0.536090 0.588775
0.147700 0.038688 0.679429
0.189476 -0.651139 1.015119
0.273073 -0.251101 0.686413
0.117042 -0.771146 0.511167
-0.251491 -0.114698 0.625002
0.146489 -0.601863 0.892373
0.077687 -0.170499 1.032730
-0.321524 -0.004729 0.927410
-0.252344 0.063617 0.880434
-0.046545 0.251219 0.879838
0.297355 -0.658097 0.652942
0.139079 -0.331865 0.424086
-0.060166 -0.138311 1.063867
0.069716 -0.669693 0.428129
-0.395970 -0.473908 0.894644
-0.332046 -0.258736 1.025231
-0.205761 -0.320060 0.197429
0.035039 -0.550407 1.006766
0.313364 0.121379 0.397359
-0.581109 -0.380737 0.574424
0.039799 -0.709053 0.915175
0.098803 -0.543499 0.771731
0.079906 -0.610865 0.970540
0.483681 -0.480777 0.597354
0.205314 -0.654268 0.896774
0.275596 -0.671097 0.599395
0.558312 0.015627 0.742493
-0.099076 -0.489238 0.966623
-0.182290 0.148443 1.072865
-0.577871 -0.168661 0.457898
-0.331793 -0.150530 0.783655
-0.349475 -0.457959 1.005663
0.570335 -0.309824 0.621534
0.098742 0.008212 1.006192
-0.133017 0.010681 1.158597
-0.350579 -0.214641 0.169336
0.045484 -0.665819 0.956570
0.183484 -0.568577 0.272063
0.378179 -0.287746 1.170820
-0.101722 -0.110419 0.961865
0.421618 -0.441744 0.828926
0.138233 -0.651879 0.998337
-0.034857 0.204481 0.906955
0.224535 -0.568902 0.805842
0.062770 -0.593285 1.043125
0.184925 -0.037183 0.370827
0.025343 -0.448522 0.727244
0.018532 -0.533605 1.073955
-0.118110 0.125813 0.447794
-0.049371 -0.298697 0.234425
-0.069561 -0.342053 0.228662
0.220534 -0.229862 0.409523
0.301210 0.088052 0.291289
0.152915 -0.472589 0.319879
0.215265 -0.434994 1.046469
-0.147184 -0.330948 1.226211
-0.000621 -0.449446 1.176006
-0.268183 -0.111224 1.160952
-0.089519 -0.270908 1.236816
0.204795 -0.658249 0.751020
0.279734 -0.170282 0.479554
0.537329 -0.414373 0.776195
-0.149350 -0.769083 0.742212
0.161673 -0.781289 0.799933
0.372547 -0.684567 0.715239
0.107572 -0.308776 1.068737
-0.179983 -0.734150 0.812125
0.309854 -0.060109 0.586478
0.116972 -0.186301 0.197371
0.195536 -0.687371 0.922527
-0.009949 -0.117191 1.149987
-0.117906 0.165468 0.340949
0.125747 -0.147624 0.884390
-0.306558 -0.135520 1.073070
0.083833 -0.577422 0.989629
0.011183 -0.578591 0.351097
0.583640 -0.201649 0.694529
-0.070549 -0.620035 0.757093
0.368128 -0.207891 0.738017
0.143751 -0.591068 0.283902
-0.244546 -0.518056 0.399955
-0.251585 -0.681089 0.895671
0.409723 -0.505220 0.915193
-0.040490 -0.507935 1.094044
-0.039826 -0.576886 0.220104
-0.285132 0.074017 0.775740
-0.132659 -0.005902 0.622807
-0.371479 -0.075287 0.980834
-0.187112 -0.595551 0.831683
0.312638 -0.599808 0.489887
0.242182 -0.714095 0.663835
0.359268 -0.581681 0.579512
-0.363847 -0.559682 0.849309
0.104231 -0.320375 1.255237
-0.007904 -0.335216 0.172876
0.067007 -0.612664 1.090412
0.031099 -0.600573 0.351340
-0.087943 -0.419457 0.199195
-0.327524 -0.643973 0.941758
0.239505 -0.009342 0.406909
0.175845 -0.262650 0.953696
-0.257129 0.068735 0.322392
-0.512013 -0.230525 0.457222
